# .PCD v0.7 - Point Cloud Data file format
VERSION 0.7
FIELDS x y z
SIZE 4 4 4
TYPE F F F
COUNT 1 1 1
WIDTH 1509
HEIGHT 1
VIEWPOINT 0 0 0 1 0 0 0
POINTS 1509
DATA ascii
-2.1349368 0.19980668 1.3714392
-2.1345422 0.21202569 1.3705347
-2.2600415 0.21536179 1.390116
-2.2529693 0.2156205 1.3876123
-2.2460601 0.21583848 1.385636
-2.239574 0.21594872 1.3850526
-2.233248 0.21601792 1.3849988
-2.2260389 0.21631439 1.3820008
-2.2787504 0.22129907 1.3895373
-2.2724478 0.22136064 1.3895862
-2.265883 0.22148865 1.3887683
-2.2593284 0.22161461 1.3879774
-2.2530041 0.22168237 1.387942
-2.2461667 0.22188081 1.3862036
-2.2395175 0.22203179 1.3850806
-2.2327714 0.22220804 1.3836292
-2.2265732 0.22224465 1.3839942
-2.2199378 0.22239335 1.382898
-2.2136309 0.2224582 1.3828931
-2.3273144 0.22584297 1.4037769
-2.3195474 0.22626588 1.3991004
-2.312964 0.22639512 1.3982667
-2.3060856 0.22659822 1.3964648
-2.2987838 0.22690782 1.3932679
-2.2923267 0.22700669 1.3928272
-2.285763 0.22713289 1.3920288
-2.2786033 0.22740868 1.3892689
-2.2724104 0.2274424 1.3896778
-2.2656448 0.22762039 1.3881971
-2.2589664 0.22777672 1.3869971
-2.252378 0.22791092 1.3860865
-2.245949 0.22800523 1.385697
-2.2397177 0.22804971 1.3859607
-2.2327626 0.22827791 1.3838147
-2.2267022 0.22827935 1.3846375
-2.220037 0.22843468 1.3834436
-2.2136548 0.22851837 1.3831873
-2.206769 0.22873086 1.3812428
-2.3590949 0.23156999 1.4043385
-2.3525231 0.23169351 1.4035791
-2.3466568 0.2316436 1.4050989
-2.339371 0.23194344 1.4020154
-2.33306 0.23200363 1.4020849
-2.3257513 0.23231049 1.3989062
-2.3182981 0.23265405 1.3952429
-2.3120675 0.23269555 1.3955555
-2.3048968 0.23297036 1.3927931
-2.2984054 0.23307717 1.3922424
-2.2922373 0.2331038 1.3927466
-2.2853179 0.23331781 1.3907825
-2.2787936 0.23343384 1.3901062
-2.2722037 0.23356645 1.3892102
-2.2657554 0.23366402 1.3887744
-2.2589893 0.23384148 1.3872852
-2.252645 0.23391366 1.3871827
-2.245733 0.23412873 1.3851954
-2.2400196 0.2340426 1.3871741
-2.2327595 0.23434624 1.3840173
-2.226815 0.23431848 1.3852259
-2.2205584 0.23436974 1.3853931
-2.2138476 0.23453592 1.384043
-2.2073352 0.23465227 1.3833485
-2.4149406 0.23589364 1.4208667
-2.4094367 0.2357547 1.4235804
-2.4022481 0.23602295 1.4209058
-2.3836129 0.23612 1.4222376
-2.3745353 0.2368499 1.4134486
-2.3649883 0.23769601 1.4031177
-2.3576834 0.23799759 1.3999927
-2.3517885 0.23795548 1.4014161
-2.3443756 0.23828477 1.3979224
-2.3382363 0.23830269 1.3985474
-2.3317852 0.23839745 1.3981556
-2.3246281 0.23866563 1.3954639
-2.3180077 0.23880266 1.3945093
-2.3117955 0.23883951 1.3948804
-2.3045454 0.23913254 1.3918568
-2.2984564 0.23913933 1.3926221
-2.292073 0.23921907 1.3924206
-2.2858493 0.23925957 1.3927381
-2.2791498 0.23941812 1.3914893
-2.2725248 0.23955864 1.3904798
-2.2661762 0.23963082 1.3903736
-2.2591729 0.23986618 1.3881043
-2.252548 0.24000801 1.3870728
-2.2463496 0.24004342 1.38745
-2.2400956 0.24009293 1.387638
-2.2333331 0.24027008 1.3861353
-2.2276015 0.24018884 1.3880554
-2.220516 0.24044777 1.3854651
-2.2138672 0.24059746 1.3843213
-2.2080166 0.24054642 1.3858374
-2.4269712 0.24201745 1.4189173
-2.4207571 0.24204987 1.4193641
-2.4138858 0.24223992 1.4177113
-2.4080288 0.24218698 1.419292
-2.4003711 0.24256708 1.4151087
-2.3936384 0.24272539 1.4138745
-2.3863144 0.24302666 1.4107361
-2.3781641 0.24352837 1.4049293
-2.3712132 0.24374147 1.4029615
-2.3642755 0.2439518 1.4010303
-2.3570881 0.24422342 1.39828
-2.350414 0.24437104 1.3971814
-2.3440926 0.24443315 1.3972168
-2.3376319 0.24452965 1.3967957
-2.3311613 0.24462853 1.3963404
-2.3246 0.24475007 1.3955823
-2.3180628 0.24486603 1.3948988
-2.3117394 0.24492975 1.3949085
-2.3048871 0.24512352 1.3931849
-2.2986615 0.24516381 1.3935034
-2.2920969 0.24528763 1.3927088
-2.2856553 0.24538147 1.392312
-2.2791789 0.24548425 1.3917956
-2.2730911 0.24549127 1.392555
-2.2660117 0.24574356 1.3900428
-2.2594483 0.2458687 1.3892237
-2.2531674 0.24592416 1.3893323
-2.2463119 0.24612252 1.3875355
-2.2407343 0.24600342 1.3899683
-2.2341998 0.24612252 1.3892261
-2.2282026 0.24610779 1.390265
-2.2207742 0.24645066 1.3865356
-2.2143247 0.2465497 1.3860571
-2.2088859 0.24639557 1.3889526
-2.2043216 0.2460212 1.3947816
-2.4389002 0.24816468 1.4166443
-2.4334786 0.24800865 1.4196118
-2.4274437 0.24799821 1.4206312
-2.4196131 0.24841531 1.4159278
-2.412873 0.24857347 1.4146875
-2.4053974 0.24890763 1.4110901
-2.3980725 0.24920677 1.4079603
-2.3904543 0.24957688 1.4038782
-2.3831873 0.24986389 1.400907
-2.3765152 0.25000885 1.3998377
-2.3696656 0.25019684 1.3981885
-2.3634861 0.25022399 1.3986926
-2.3568528 0.25036058 1.3977307
-2.3504238 0.25044817 1.3974231
-2.3440464 0.25052363 1.3972766
-2.3373141 0.25068536 1.3959754
-2.3309736 0.25075233 1.3959388
-2.3242145 0.25092119 1.3945386
-2.317955 0.25096902 1.3947583
-2.3113363 0.25110444 1.3938025
-2.3049808 0.251176 1.3937012
-2.2986252 0.25124779 1.393595
-2.2923303 0.25130501 1.393683
-2.285614 0.25146553 1.3923866
-2.2794421 0.25149301 1.3928711
-2.2730339 0.25157851 1.3925757
-2.2666972 0.25164673 1.3925122
-2.2600644 0.25178802 1.3914673
-2.2535615 0.25189775 1.390846
-2.24703 0.25201479 1.3901234
-2.2407861 0.25206101 1.3903503
-2.2340145 0.25223809 1.3888196
-2.2291431 0.25194412 1.3936048
-2.2221222 0.25218362 1.3912367
-2.2154391 0.25233957 1.3899866
-2.2102859 0.25211465 1.3938428
-2.2049346 0.25193849 1.3970435
-2.198667 0.25199097 1.397179
-2.1927249 0.25196213 1.3984034
-2.4469702 0.25378853 1.4222827
-2.4394033 0.2541388 1.4184498
-2.4321423 0.2544179 1.4155737
-2.4248719 0.25470003 1.4126551
-2.4176614 0.25496864 1.409917
-2.4090562 0.25556877 1.4027137
-2.4020236 0.25579721 1.400514
-2.3957074 0.2558558 1.4005982
-2.3889666 0.25601572 1.3993176
-2.3823855 0.25613809 1.3985413
-2.3759246 0.25623199 1.398147
-2.3694055 0.25634003 1.3975611
-2.3631036 0.2563965 1.3976685
-2.3568225 0.25644815 1.3978406
-2.3502219 0.25657639 1.3969775
-2.3438222 0.2566568 1.396759
-2.3373868 0.25674623 1.3964185
-2.3308387 0.25686279 1.3957093
-2.3243504 0.2569654 1.395188
-2.3177381 0.25709817 1.3942591
-2.311095 0.25723886 1.3932227
-2.3047161 0.25731561 1.3930445
-2.298841 0.25727051 1.3945093
-2.2928009 0.25726533 1.3954346
-2.2864046 0.25734681 1.3951905
-2.2796452 0.25751716 1.3937464
-2.273834 0.25745636 1.3954188
-2.2667572 0.25770494 1.3929187
-2.2613277 0.25755066 1.3958484
-2.2543204 0.25778291 1.3935645
-2.2478554 0.25788277 1.3930652
-2.2412817 0.25800949 1.3922021
-2.2356381 0.25790757 1.3944227
-2.2294979 0.25792778 1.3949939
-2.2229366 0.25805223 1.394159
-2.2172852 0.25795168 1.3963562
-2.2111554 0.25796935 1.396958
-2.2051737 0.25795045 1.3980531
-2.1992674 0.25791276 1.3993994
-2.1934655 0.25784889 1.4010987
-2.4618444 0.26066902 1.4092115
-2.4551313 0.26081774 1.4080836
-2.4500573 0.26058373 1.412135
-2.4441483 0.26054445 1.4135486
-2.4368784 0.2608242 1.4106433
-2.431304 0.26070657 1.4131165
-2.4220972 0.26144233 1.404032
-2.4150262 0.26167762 1.4017236
-2.4082806 0.26183665 1.4004456
-2.4018142 0.26193041 1.4000514
-2.3952727 0.26204202 1.3994141
-2.3886521 0.2621727 1.3985157
-2.3823886 0.26221925 1.3987585
-2.3762383 0.26223886 1.3993628
-2.369777 0.26233253 1.3989637
-2.3629882 0.26250428 1.3975037
-2.3566794 0.26256227 1.3975855
-2.3502285 0.26265404 1.397207
-2.3436604 0.26277453 1.3964405
-2.3376017 0.26277298 1.3973242
-2.330755 0.26296052 1.3956445
-2.3246872 0.2629616 1.3964918
-2.3181632 0.26307228 1.3958521
-2.311466 0.26322496 1.3946412
-2.3050776 0.26330361 1.3944324
-2.2991765 0.26326486 1.3958143
-2.2931693 0.26325172 1.3968494
-2.286788 0.263329 1.3966553
-2.2818038 0.26306778 1.401051
-2.2747025 0.26331985 1.3984852
-2.2671976 0.26367065 1.3945789
-2.2616892 0.26353645 1.3972486
-2.2553985 0.2635926 1.3973365
-2.2492883 0.26360467 1.39802
-2.2431076 0.26363426 1.3984656
-2.4653885 0.26734558 1.4005555
-2.4609735 0.2669616 1.40667
-2.4546211 0.26702607 1.4066772
-2.4486604 0.26699966 1.40792
-2.4415443 0.26724204 1.4055029
-2.4350216 0.26734665 1.4049585
-2.4289682 0.2673423 1.4058985
-2.4216568 0.26763168 1.4028357
-2.4147456 0.26782823 1.4010352
-2.4080122 0.26798365 1.3997949
-2.4019763 0.26797587 1.4007764
-2.3952286 0.26813531 1.3994776
-2.3887947 0.26822135 1.3991785
-2.3829119 0.26817781 1.4006445
-2.3762088 0.26832771 1.3994727
-2.3696325 0.26844797 1.3987037
-2.3632782 0.26851594 1.398645
-2.3567004 0.26863709 1.3978602
-2.3504217 0.26868775 1.3980359
-2.344099 0.26874885 1.3980689
-2.337528 0.26886925 1.3972913
-2.331182 0.26893649 1.3972375
-2.3247907 0.26901451 1.397035
-2.3188715 0.26898003 1.3983655
-2.311919 0.26919267 1.3963257
-2.3057444 0.26921943 1.3968177
-2.2996793 0.26922014 1.3976661
-2.2938318 0.26916841 1.3992274
-2.288213 0.2690616 1.4015393
-2.2821696 0.2690568 1.4024597
-2.2771714 0.2687996 1.4068201
-2.2710137 0.26882195 1.4073682
-2.2645612 0.26891571 1.4069386
-2.4730728 0.27306268 1.4049451
-2.4669876 0.27306518 1.4057984
-2.4607449 0.27310386 1.4061536
-2.4543793 0.27317116 1.4061182
-2.4481568 0.27320543 1.406532
-2.4413028 0.27338594 1.4049414
-2.4346335 0.27352402 1.4039307
-2.4282627 0.27359331 1.4038624
-2.421206 0.2738221 1.4016052
-2.4146588 0.27393302 1.4009632
-2.4079466 0.27408263 1.3997889
-2.4019518 0.27406535 1.4009022
-2.3953736 0.27418429 1.4001465
-2.3889954 0.27425677 1.4000269
-2.3828702 0.27427012 1.4007154
-2.376405 0.27436334 1.4003088
-2.3695753 0.27454233 1.3987244
-2.3641326 0.27439561 1.4016052
-2.3564725 0.27477083 1.3973279
-2.3504126 0.27476951 1.3982117
-2.3440843 0.27483162 1.3982252
-2.3377554 0.27489403 1.3982325
-2.3309684 0.27506524 1.3967481
-2.3251319 0.27501136 1.3983496
-2.3188989 0.2750515 1.3986597
-2.3124108 0.27515236 1.398136
-2.3061395 0.27520204 1.398313
-2.3009934 0.27498323 1.4021716
-2.29633 0.27464861 1.4076209
-2.2901735 0.27467003 1.4081812
-2.2842898 0.2746264 1.4096351
-2.4803684 0.27887383 1.4080957
-2.4733062 0.27909899 1.4058826
-2.467284 0.27908692 1.406936
-2.4608426 0.27917093 1.4066651
-2.4541779 0.27930626 1.4056848
-2.4473181 0.27948678 1.4040809
-2.4409111 0.2795637 1.4039038
-2.4345858 0.27962181 1.4039832
-2.4284079 0.2796464 1.4045264
-2.4214249 0.27985671 1.4025049
-2.414494 0.28005555 1.4006422
-2.4081652 0.2801156 1.4006909
-2.4022474 0.28008059 1.4020509
-2.3953381 0.28027549 1.4002368
-2.3889222 0.28035632 1.3999952
-2.382808 0.28036714 1.400719
-2.377003 0.28030586 1.4024353
-2.3699076 0.28054574 1.3999976
-2.3633552 0.28065917 1.3993006
-2.3569317 0.28074279 1.3990161
-2.3506916 0.28078368 1.3993176
-2.3441818 0.28088805 1.398744
-2.3383474 0.28083375 1.4003577
-2.3316898 0.28097323 1.3992969
-2.3250501 0.2811088 1.3982874
-2.3199921 0.28087136 1.4024255
-2.3140442 0.28084368 1.4036683
-2.3078187 0.28088149 1.4040052
-2.3012857 0.28099242 1.4033326
-2.4861767 0.28502557 1.4065698
-2.4801676 0.28501055 1.4076673
-2.4734457 0.28515717 1.4065235
-2.4670191 0.28523719 1.4063026
-2.4606779 0.28529793 1.4063464
-2.4543118 0.2853643 1.406311
-2.4476905 0.28548944 1.4054614
-2.4410775 0.28561273 1.4046339
-2.4346757 0.28568816 1.4044702
-2.4281411 0.28579408 1.4038819
-2.4211102 0.28601432 1.4017066
-2.414628 0.286109 1.4012707
-2.4081483 0.28620347 1.4008386
-2.4019136 0.28624162 1.4011866
-2.3954117 0.28634149 1.4006739
-2.3896399 0.28627297 1.4024988
-2.3838422 0.28621033 1.404242
-2.378089 0.2861371 1.4061304
-2.371798 0.28618842 1.4062879
-2.3662031 0.28607818 1.4086878
-2.3582087 0.28652588 1.4033424
-2.3524525 0.28645349 1.4052149
-2.345644 0.28662622 1.4036829
-2.3402555 0.28646776 1.4067494
-2.3325741 0.28684518 1.4023719
-2.3268578 0.28676322 1.4043726
-2.3199003 0.28697252 1.4023291
-2.3157198 0.28652954 1.4093397
-2.4867132 0.29099572 1.4084535
-2.4800565 0.2911264 1.4075196
-2.4737387 0.29118121 1.4076465
-2.4671817 0.29129007 1.4070154
-2.4611263 0.29128563 1.4079639
-2.4544485 0.29142228 1.4069434
-2.4474411 0.29163399 1.4048743
-2.4410772 0.29170015 1.4048352
-2.4348192 0.29174232 1.4051282
-2.428647 0.2917653 1.4056897
-2.4220703 0.29188034 1.4049634
-2.4154236 0.29201174 1.4040089
-2.4096353 0.29194725 1.4057862
-2.4028275 0.29211602 1.4043078
-2.3964927 0.29217666 1.404336
-2.3907526 0.292101 1.4062672
-2.3858879 0.29182374 1.4110107
-2.3801162 0.29175454 1.4128504
-2.3742712 0.29170212 1.4144531
-2.369148 0.29148287 1.418385
-2.3619654 0.29173928 1.415675
-2.3563302 0.29163772 1.4179603
-2.3481278 0.29213166 1.41193
-2.3421907 0.2921007 1.4132288
-2.3335395 0.29270089 1.4057093
-2.3267591 0.29286698 1.4042517
-2.3215635 0.29266396 1.4079492
-2.486419 0.29715303 1.4077307
-2.4807262 0.29706734 1.4098231
-2.4738617 0.2972441 1.4082325
-2.4670632 0.29740641 1.4068421
-2.4606969 0.297472 1.4068091
-2.454582 0.29748124 1.4075648
-2.4480627 0.29758164 1.4070411
-2.4414539 0.29770249 1.4062281
-2.4356296 0.29764634 1.4078993
-2.4290261 0.29776651 1.4070947
-2.4231708 0.2977173 1.4086658
-2.4158468 0.29800117 1.4055579
-2.4108622 0.2977542 1.4099036
-2.4044437 0.29783311 1.4096742
-2.3977942 0.29796448 1.4087037
-2.392628 0.29775795 1.4124793
-2.3873506 0.29757607 1.4159082
-2.3818021 0.29745591 1.4184705
-2.37676 0.29721916 1.4226685
-2.3694813 0.29749528 1.4196607
-2.3655179 0.29700997 1.4273499
-2.3564866 0.29768983 1.4186658
-2.350127 0.29775584 1.418606
-2.4871833 0.30307433 1.410326
-2.4808254 0.30313691 1.4103345
-2.4743731 0.30322075 1.4100404
-2.4680076 0.30328536 1.4100159
-2.4606924 0.30356231 1.4069935
-2.454571 0.30357292 1.4077295
-2.4485714 0.30355629 1.4088502
-2.4430091 0.30344155 1.411355
-2.4360952 0.30363008 1.4095752
-2.4295835 0.30372855 1.409065
-2.4237852 0.30366662 1.4108204
-2.417789 0.30364916 1.411947
-2.4115589 0.30368453 1.4123267
-2.4051962 0.30374992 1.4122803
-2.3997693 0.30360344 1.4152259
-2.3938804 0.30356157 1.4166944
-2.388097 0.30349541 1.4185034
-2.3834374 0.30317345 1.4239283
-2.3790808 0.30278161 1.4303406
-2.3731692 0.30274323 1.4317542
-2.5731411 0.30765504 1.4202979
-2.4812596 0.30913284 1.4118946
-2.4751348 0.3091433 1.4126356
-2.4694128 0.30906472 1.4146423
-2.4628878 0.30916399 1.4141186
-2.456239 0.3092913 1.413197
-2.4489322 0.30956528 1.4101881
-2.44344 0.30943552 1.4129187
-2.436497 0.3096292 1.4110475
-2.4306152 0.3095862 1.4125415
-2.4241681 0.30966964 1.4122363
-2.4184959 0.30957961 1.414397
-2.4121308 0.30964479 1.4143494
-2.4058704 0.30968666 1.4146326
-2.3991387 0.3098346 1.4134046
-2.3939381 0.3096379 1.4170777
-2.59758 0.31373522 1.4171582
-2.5931273 0.31338471 1.4230762
-2.5868509 0.31342536 1.4234058
-2.5798104 0.31363061 1.4213831
-2.573323 0.31371722 1.4210547
-2.5671704 0.31373176 1.4217529
-2.4826674 0.31491587 1.4165149
-2.4769092 0.31484544 1.4184132
-2.4698911 0.31505227 1.4163452
-2.4641886 0.31496942 1.4184192
-2.457269 0.31515527 1.416648
-2.4511597 0.31516227 1.4174341
-2.4448481 0.31521416 1.4175769
-2.4377165 0.31544816 1.4151136
-2.4327269 0.31520677 1.4194494
-2.4251504 0.31554031 1.4155604
-2.4184756 0.31567383 1.41453
-2.6139545 0.31894302 1.4283692
-2.6073861 0.31904474 1.4278224
-2.6007011 0.31917161 1.4269117
-2.5937431 0.31935701 1.4251599
-2.586694 0.31956223 1.4231189
-2.5802376 0.31964135 1.4228919
-2.5734336 0.31979516 1.4215894
-2.5671725 0.31983277 1.4219556
-2.4780383 0.32069328 1.4221619
-2.472698 0.3205311 1.4253858
-2.4659715 0.32067245 1.4242395
-2.4591432 0.32083663 1.4227662
-2.4532874 0.32078728 1.4243628
-2.4477932 0.32065821 1.427107
-2.4379673 0.32148391 1.416106
-2.4308984 0.32170311 1.413833
-2.6205115 0.32495162 1.4290699
-2.6138554 0.32507098 1.4282606
-2.6071944 0.32519165 1.4274292
-2.5999124 0.32544419 1.4246912
-2.5933535 0.32554406 1.4241589
-2.5869086 0.32562006 1.4239709
-2.580462 0.32569641 1.4237757
-2.5738299 0.32581252 1.4230042
-2.5675156 0.3258613 1.4232068
-2.4741011 0.32632333 1.4300001
-2.4610004 0.32652688 1.4288306
-2.4543447 0.32665208 1.4279041
-2.444797 0.32741043 1.4178052
-2.633451 0.33090082 1.4297327
-2.6270971 0.33095565 1.4298536
-2.620492 0.3310633 1.4292041
-2.6137812 0.33119348 1.4282264
-2.6066241 0.33141762 1.4258777
-2.5998397 0.33156395 1.4246619
-2.5932648 0.33166674 1.4240785
-2.5865393 0.33180124 1.4230311
-2.580461 0.33179957 1.4239661
-2.574173 0.33184221 1.4242542
-2.567539 0.33195817 1.4234729
-2.6527059 0.33680665 1.4301319
-2.6463828 0.33685449 1.430354
-2.6399426 0.33692643 1.4302198
-2.6336067 0.33697709 1.430398
-2.6271152 0.33706024 1.4300989
-2.6203604 0.33719835 1.4289942
-2.6138887 0.33727777 1.4287477
-2.6065252 0.33754364 1.4257679
-2.5999804 0.33763909 1.4252832
-2.5932908 0.33776498 1.4243506
-2.5868702 0.33783492 1.4242383
-2.580622 0.33786881 1.4246521
-2.5745215 0.3378717 1.4255189
-2.5681272 0.3379364 1.4254786
-2.5619943 0.33794627 1.4262415
-2.6716976 0.34277031 1.4297022
-2.6658769 0.34271446 1.4314502
-2.6595151 0.34276941 1.4315649
-2.6528785 0.34288108 1.4308436
-2.6465542 0.34292871 1.4310645
-2.6400785 0.34300759 1.4308228
-2.633635 0.34307998 1.4306751
-2.6271069 0.34317017 1.4302649
-2.6207659 0.34322181 1.4304212
-2.6140265 0.3433561 1.429358
-2.6075475 0.34343684 1.4290845
-2.6005981 0.34361535 1.4273658
-2.5938489 0.34375283 1.4262525
-2.5879426 0.34371498 1.4277222
-2.581337 0.34382296 1.4270411
-2.5746775 0.34394225 1.4261903
-2.5690937 0.3438372 1.4286487
-2.5628617 0.34386751 1.4291102
-2.6933334 0.34820122 1.4371876
-2.6857996 0.3484925 1.4337964
-2.679477 0.34853861 1.4340417
-2.6726103 0.34869546 1.4326428
-2.6659853 0.34880349 1.4319679
-2.6595178 0.34887955 1.4317627
-2.6527798 0.34901115 1.4307349
-2.6467798 0.34899217 1.4319385
-2.6401825 0.34909555 1.4313282
-2.6336746 0.34918061 1.4309851
-2.6271904 0.3492614 1.4307069
-2.6209867 0.34928429 1.4312842
-2.6139915 0.34947053 1.4294398
-2.6076047 0.34953156 1.4294482
-2.6006637 0.34970728 1.4277564
-2.5947013 0.34968117 1.4290564
-2.5876472 0.3498809 1.4270045
-2.5817013 0.34985152 1.4283521
-2.5758147 0.34980965 1.4298829
-2.571048 0.34953514 1.434867
-2.5648975 0.34954774 1.4355885
-2.7069736 0.35402611 1.4398414
-2.7000406 0.35419366 1.4382727
-2.692843 0.35441497 1.4359021
-2.6861601 0.35453308 1.4350684
-2.6792605 0.3546952 1.4335779
-2.673089 0.3547107 1.4342749
-2.6661532 0.35488069 1.4326624
-2.6597755 0.35493821 1.4327295
-2.6533375 0.35500801 1.4326111
-2.6466579 0.35512713 1.4317566
-2.6402695 0.35518724 1.4317799
-2.633733 0.35527772 1.4313489
-2.6273339 0.35534036 1.4313331
-2.6213572 0.355317 1.4326013
-2.6147437 0.35542366 1.4319251
-2.6076021 0.35563874 1.429629
-2.6014142 0.35565889 1.430243
-2.5943482 0.35585946 1.4281616
-2.5886796 0.35577318 1.4303626
-2.5821579 0.3558622 1.4299439
-2.5776908 0.35552797 1.4358485
-2.571748 0.35549745 1.4372144
-2.7263529 0.35992813 1.4404517
-2.7197497 0.36002809 1.4398866
-2.7132537 0.36010697 1.4396362
-2.7067606 0.36018547 1.4393897
-2.6998777 0.36034203 1.4379712
-2.6928566 0.36052665 1.4361292
-2.6861951 0.36063966 1.4353614
-2.6800115 0.36065727 1.4360267
-2.6735592 0.36072883 1.4358802
-2.6663778 0.36094695 1.4335278
-2.6604702 0.36090943 1.4350183
-2.6533282 0.36112052 1.4327698
-2.6472101 0.36112556 1.4336182
-2.6404214 0.36126611 1.432428
-2.6340923 0.36131394 1.4326295
-2.6280074 0.36131242 1.4335718
-2.6217065 0.36135474 1.4338551
-2.6083579 0.36159173 1.4321265
-2.6022401 0.36159721 1.4329591
-2.5964642 0.36153305 1.4348389
-2.5903308 0.36154166 1.4356226
-2.584456 0.36149749 1.4371985
-2.7385898 0.36603937 1.4388684
-2.7324741 0.36604226 1.439762
-2.7260919 0.36609787 1.4398584
-2.7197065 0.3661544 1.4399414
-2.7130327 0.36626786 1.4391602
-2.7068381 0.36628693 1.4398072
-2.6999459 0.36644417 1.4383619
-2.6931481 0.36658326 1.4371899
-2.6865299 0.36668685 1.4365528
-2.6801734 0.36673859 1.4367005
-2.6743727 0.36667979 1.4385194
-2.6666846 0.36699745 1.4346399
-2.6601639 0.36708274 1.4342774
-2.6540487 0.36708689 1.435138
-2.6474574 0.36718652 1.4345545
-2.6414349 0.36717239 1.4356922
-2.6349149 0.36725807 1.4353162
-2.6290934 0.36720338 1.4370655
-2.7563248 0.3722676 1.4345556
-2.7510426 0.37210822 1.4379224
-2.7450037 0.37209627 1.4390466
-2.7385328 0.37216872 1.4388831
-2.7325828 0.3721393 1.4402698
-2.7264078 0.37215385 1.4409852
-2.7195399 0.37230471 1.4396278
-2.7135968 0.37227395 1.4410316
-2.7067347 0.37242401 1.4396814
-2.6999326 0.37256256 1.4385059
-2.6931968 0.37268844 1.4375207
-2.6870713 0.37269402 1.4383668
-2.6807766 0.37273318 1.4387012
-2.674598 0.37274933 1.4393836
-2.6682401 0.37280115 1.4395227
-2.6616871 0.37289178 1.4390687
-2.6550989 0.37298959 1.4385035
-2.6490438 0.37298167 1.4395509
-2.6419625 0.37317809 1.4374806
-2.779345 0.3774749 1.4458436
-2.7702255 0.37805659 1.4378834
-2.7635489 0.37816772 1.4371253
-2.7572479 0.37820655 1.4374744
-2.7512197 0.3781926 1.4386305
-2.7448516 0.3782444 1.4387782
-2.7387855 0.37823784 1.4398193
-2.7327127 0.37823251 1.4408399
-2.7260895 0.37833428 1.4402186
-2.7198486 0.37836182 1.4407337
-2.6939642 0.37865287 1.4400098
-2.6877866 0.37866852 1.440702
-2.6815391 0.37869796 1.4411805
-2.6755669 0.37867317 1.4424902
-2.6700799 0.37855279 1.4452637
-2.6632702 0.3786931 1.4440405
-2.6577411 0.37858072 1.4466895
-2.6494784 0.37900871 1.441051
-2.7920837 0.38349748 1.4456861
-2.7839353 0.38388804 1.4406153
-2.7776248 0.38392776 1.4409498
-2.7709582 0.38403589 1.4402295
-2.7641108 0.38417885 1.4389697
-2.7582092 0.3841404 1.4405054
-2.7514346 0.38427001 1.4394507
-2.7456799 0.38420343 1.4414197
-2.7392054 0.38427544 1.4412501
-2.7329414 0.38430697 1.441703
-2.6949594 0.38457504 1.4431812
-2.6875424 0.38483194 1.4401489
-2.6832798 0.3844738 1.4466065
-2.6713006 0.38443047 1.4491334
-2.7897732 0.39005989 1.4390674
-2.7829876 0.39018953 1.4380029
-2.7770019 0.39016753 1.4392921
-2.7711172 0.3901262 1.4408802
-2.7656007 0.39001459 1.4435583
-2.7594254 0.39002824 1.4442896
-2.7521939 0.39024401 1.4418836
-2.7459664 0.39026803 1.4424524
-2.7391129 0.39041215 1.441156
-2.7327259 0.39046708 1.4412427
-2.7267399 0.39044526 1.4425207
-2.7943704 0.39646417 1.4338733
-2.7891941 0.39629006 1.4375428
-2.7829154 0.39632347 1.43797
-2.777215 0.3962478 1.4401002
-2.7720361 0.39607322 1.4437757
-2.766818 0.3959057 1.4473401
-2.7603247 0.3959794 1.4471326
-2.7539704 0.39602691 1.4473341
-2.7458906 0.39640245 1.4424061
-2.7398214 0.39639634 1.4434437
-2.7340512 0.39633316 1.4453712
-2.7901077 0.40223962 1.4404101
-2.7835548 0.40232408 1.4400318
-2.7781887 0.40218598 1.4431531
-2.7731693 0.40198243 1.4473022
-2.7658355 0.4022136 1.4446119
-2.7607925 0.40201411 1.4486976
-2.7541242 0.40212029 1.44797
-2.7475762 0.40220398 1.447594
-2.7917664 0.40805322 1.4454676
-2.7849145 0.40819216 1.4442164
-2.7797647 0.40801454 1.4479798
-2.7738214 0.40798432 1.4494067
-2.7667935 0.40815666 1.4476234
-2.760859 0.40812486 1.4490722
-2.7920361 0.4141272 1.4464381
-1.5963492 0.074945532 1.3361524
-1.5917349 0.074467622 1.3423219
-1.5878711 0.07373032 1.3514502
-1.5827731 0.073415153 1.355763
-1.5733435 0.074592143 1.343053
-1.5675988 0.074500814 1.3448108
-1.5597034 0.07515312 1.3380835
-1.553537 0.075208209 1.3381666
-1.5473312 0.075277485 1.3380884
-1.614743 0.080836341 1.3356775
-1.6092157 0.080673076 1.3382715
-1.6025122 0.080909431 1.3362855
-1.5964651 0.080922782 1.3368518
-1.5906945 0.08084175 1.3384998
-1.5843881 0.080943763 1.3380493
-1.5783679 0.080948114 1.3387171
-1.5719119 0.081102073 1.3376685
-1.5656903 0.081175692 1.3375391
-1.559126 0.081367657 1.3360523
-1.5524896 0.081585161 1.3342713
-1.5471399 0.081358872 1.3375757
-1.6679065 0.085156254 1.3496387
-1.6621133 0.085081942 1.3512281
-1.6540545 0.085763715 1.3441101
-1.6481253 0.085735783 1.3451636
-1.6408834 0.08614739 1.3411536
-1.6343673 0.086316846 1.3399304
-1.6279846 0.086441815 1.3392175
-1.621511 0.086597905 1.3381457
-1.6150055 0.086765222 1.3369422
-1.6087189 0.086859293 1.3365821
-1.6024154 0.086959235 1.3361524
-1.5961069 0.087061241 1.3356982
-1.590184 0.087032706 1.3367468
-1.5838357 0.087148756 1.3361292
-1.5774164 0.08728943 1.3352258
-1.5713865 0.087297671 1.3358473
-1.5648487 0.087479405 1.3344678
-1.5585505 0.087579735 1.3340247
-1.5523734 0.087638862 1.3340564
-1.5457959 0.087835856 1.3324976
-1.6906629 0.091612324 1.3419617
-1.6846192 0.091622166 1.3425854
-1.6782651 0.091734476 1.3420228
-1.6720029 0.091816641 1.3418067
-1.666207 0.091744855 1.3433728
-1.6592896 0.09204483 1.3406348
-1.6528299 0.092193685 1.3396436
-1.6464188 0.092326663 1.3388355
-1.6399469 0.092480555 1.3377832
-1.6339569 0.092473835 1.338589
-1.6278037 0.092521824 1.338761
-1.6213647 0.09266571 1.3378211
-1.6151739 0.09272667 1.3378394
-1.6088043 0.092848063 1.3371582
-1.6024988 0.092948154 1.3367212
-1.5960681 0.093090907 1.3357898
-1.5899912 0.093114473 1.3362366
-1.5836045 0.093243115 1.3354664
-1.5774307 0.093299873 1.3355261
-1.5708683 0.09348885 1.334054
-1.5647305 0.09353409 1.3342457
-1.5583005 0.093678825 1.3332825
-1.5519605 0.093793415 1.3326672
-1.5457081 0.093878634 1.3323926
-1.7155558 0.097363517 1.3424085
-1.7093195 0.09743569 1.3423133
-1.702981 0.09754128 1.3418262
-1.6966864 0.097632915 1.3415015
-1.6902527 0.097770311 1.3406421
-1.6842178 0.097777262 1.3412988
-1.6776882 0.09794686 1.3400635
-1.6715457 0.097989894 1.3402991
-1.6649356 0.09818688 1.3387427
-1.6590161 0.098156594 1.3398279
-1.652486 0.098328106 1.3385645
-1.6463114 0.098382421 1.3386633
-1.639856 0.098529972 1.3376758
-1.6337579 0.098559424 1.3380616
-1.6274811 0.098648384 1.3377539
-1.621081 0.098778769 1.3369629
-1.6148422 0.098855592 1.3367933
-1.6085534 0.098949514 1.3364246
-1.6025138 0.098960273 1.3370215
-1.5959238 0.099155664 1.3354688
-1.5898089 0.099192135 1.3357654
-1.5833136 0.099356696 1.3345691
-1.5769831 0.099466257 1.3340113
-1.5709164 0.099487007 1.3344861
-1.5646902 0.099561773 1.334331
-1.5580149 0.099789135 1.3323975
-1.5518646 0.09983895 1.3325306
-1.5454144 0.099990852 1.3314735
-1.7475582 0.10277002 1.346145
-1.7410748 0.10291947 1.3451477
-1.7349292 0.10296097 1.3454102
-1.7284149 0.10312112 1.3442847
-1.7221009 0.10321733 1.3439063
-1.715618 0.10336839 1.3428857
-1.7092856 0.10347122 1.3424268
-1.7028091 0.10362114 1.341416
-1.6966062 0.10368264 1.3414381
-1.6901575 0.10382431 1.3405213
-1.6840787 0.10384575 1.3410083
-1.6777411 0.1039518 1.3405054
-1.6712748 0.10410042 1.3395045
-1.6649424 0.10420563 1.3390088
-1.6586282 0.10430513 1.3385792
-1.6525049 0.10434213 1.3388782
-1.6462076 0.10443658 1.3385047
-1.6399704 0.10451149 1.3383582
-1.6336484 0.10461472 1.3378797
-1.6275293 0.10465112 1.3381811
-1.6212866 0.10472863 1.3380017
-1.614625 0.10494553 1.3361902
-1.6085202 0.1049778 1.3365357
-1.6025019 0.10498139 1.3372169
-1.596077 0.1051207 1.3363086
-1.5896347 0.10526635 1.3353248
-1.5833856 0.10534775 1.3350916
-1.5770407 0.10546143 1.3344789
-1.5708197 0.10553398 1.334347
-1.5644211 0.10566659 1.3335108
-1.5580035 0.10580597 1.332594
-1.5515 0.10597496 1.3313307
-1.5450811 0.10611574 1.3303956
-1.7730365 0.10835183 1.348617
-1.7667005 0.10845216 1.3481922
-1.7603979 0.10854218 1.3478882
-1.7537253 0.10875054 1.3461927
-1.7473764 0.10885613 1.3457031
-1.741218 0.10890114 1.3459229
-1.7347056 0.10905968 1.3448097
-1.7284501 0.10913628 1.3446558
-1.7220569 0.10925721 1.3439808
-1.7157264 0.1093586 1.3435352
-1.7091342 0.10954468 1.3420923
-1.70297 0.10959297 1.3422669
-1.6966122 0.10970413 1.3417017
-1.6903045 0.10979936 1.3413221
-1.6838806 0.10993271 1.3404932
-1.6776291 0.11001039 1.3403174
-1.6713046 0.11011209 1.3398584
-1.6649945 0.11020951 1.3394495
-1.6587784 0.11027649 1.3393958
-1.6526278 0.11032204 1.3395923
-1.6462219 0.11045166 1.3388001
-1.6400812 0.11049455 1.339026
-1.6337659 0.11059494 1.3385743
-1.6274424 0.11069848 1.338086
-1.6213119 0.11073861 1.3383399
-1.6148316 0.1108944 1.3372339
-1.6087418 0.11092148 1.3376392
-1.6026175 0.1109601 1.3379078
-1.5960184 0.11115655 1.3363196
-1.58974 0.11124695 1.3359766
-1.5833509 0.11137451 1.3351966
-1.5769156 0.11151803 1.3342273
-1.5705439 0.11164063 1.3335023
-1.5643506 0.11170381 1.3334742
-1.5580329 0.11180908 1.3329505
-1.5515375 0.11197441 1.3317188
-1.5451816 0.11209337 1.3310328
-1.7916898 0.11419579 1.3487854
-1.7852161 0.11433815 1.3478626
-1.7788583 0.11444458 1.3473634
-1.7726603 0.1145009 1.3474536
-1.7663107 0.11460511 1.3469776
-1.7599838 0.11470261 1.3465797
-1.7538553 0.11473756 1.3469189
-1.7473902 0.11487938 1.3459949
-1.7410151 0.11499321 1.3454005
-1.7346481 0.11510468 1.3448328
-1.7283264 0.11520203 1.34443
-1.7220181 0.11529549 1.3440723
-1.7153772 0.11549576 1.3424536
-1.7092743 0.11552399 1.3428626
-1.7030069 0.11560532 1.3426441
-1.6966467 0.11571671 1.3420703
-1.6901855 0.11586083 1.3411072
-1.683942 0.11593537 1.3409656
-1.6777645 0.1159887 1.341073
-1.6712449 0.11615296 1.3398682
-1.6650134 0.11622437 1.3397608
-1.6587799 0.11629663 1.3396411
-1.6524674 0.11639489 1.3392127
-1.6462851 0.11645082 1.3392823
-1.6402398 0.11646225 1.3398768
-1.6335764 0.11667595 1.3380811
-1.6274792 0.11670502 1.3384669
-1.6214118 0.1167241 1.3389673
-1.6149625 0.11686891 1.337981
-1.6088355 0.11690811 1.3382422
-1.6032242 0.1167772 1.3405116
-1.5961057 0.11714403 1.3368994
-1.5897183 0.11727005 1.3361304
-1.5835513 0.11732332 1.3362195
-1.5772132 0.11743363 1.3356336
-1.5703757 0.11771058 1.3330786
-1.5643414 0.11772043 1.3336768
-1.5579803 0.11783975 1.332981
-1.5516907 0.11793534 1.3325635
-1.5454663 0.11800957 1.3323988
-1.8165354 0.11999016 1.3487891
-1.8103882 0.12002915 1.3490894
-1.8040491 0.12012802 1.348678
-1.7976702 0.12023957 1.3481153
-1.7914966 0.1202874 1.3483069
-1.7851337 0.12039452 1.3477942
-1.7788342 0.12048195 1.3475122
-1.7726206 0.120543 1.347544
-1.766206 0.12066727 1.3468238
-1.7598071 0.12078691 1.3461573
-1.7535279 0.1208693 1.3459314
-1.7472415 0.12095429 1.3456739
-1.7408383 0.12107629 1.3449756
-1.7347263 0.12110649 1.345365
-1.7282392 0.12125596 1.3443384
-1.7220126 0.12132303 1.3442883
-1.7155746 0.12145745 1.3434376
-1.7094265 0.12150002 1.3436756
-1.7030365 0.12162004 1.3429945
-1.6966324 0.12174477 1.3422546
-1.6901047 0.12190972 1.3410364
-1.6836963 0.12203682 1.3402661
-1.6776044 0.12206239 1.3406996
-1.6715213 0.12208527 1.3411634
-1.6651007 0.1222171 1.3403333
-1.6591699 0.12219116 1.3413758
-1.652656 0.1223539 1.3401759
-1.6460962 0.12253197 1.3387928
-1.64 0.12256012 1.3391882
-1.6336725 0.12266351 1.3386902
-1.6274942 0.12271874 1.3387623
-1.6214353 0.12273506 1.3392944
-1.6152191 0.12280282 1.3392152
-1.6087455 0.12295517 1.3381299
-1.6028669 0.12291291 1.3393555
-1.5961862 0.12313385 1.3374524
-1.5900202 0.12318628 1.33755
-1.5838541 0.12323891 1.3376453
-1.5775211 0.12334679 1.3370813
-1.5707102 0.12361328 1.3346326
-1.5648642 0.12356073 1.3359729
-1.5579648 0.12385765 1.3331592
-1.5522639 0.12375702 1.3350683
-1.5459272 0.12386795 1.3344629
-1.8482322 0.1255362 1.3509924
-1.8417771 0.12566835 1.3501856
-1.8353995 0.12577714 1.3496571
-1.8289862 0.12589738 1.3489906
-1.8228601 0.12592919 1.349375
-1.8165835 0.12600778 1.3492017
-1.8104019 0.12605713 1.3493762
-1.8040912 0.1261467 1.3490698
-1.7977387 0.12624948 1.3486048
-1.7913635 0.12635964 1.3480506
-1.7851349 0.12642449 1.3480347
-1.7788409 0.12650986 1.3477734
-1.7723294 0.12666367 1.3466955
-1.766152 0.12671319 1.3468592
-1.7599002 0.1267862 1.3467407
-1.7534213 0.1269307 1.345769
-1.7474252 0.12692407 1.3465991
-1.7410733 0.12702936 1.3460926
-1.7346076 0.12717079 1.3451538
-1.7283114 0.12725915 1.3448474
-1.7220858 0.12732545 1.3448023
-1.7156384 0.12746239 1.3439136
-1.7096442 0.12745568 1.3447363
-1.7030313 0.12764572 1.3432118
-1.6968045 0.12771355 1.3431433
-1.6901075 0.12793152 1.3412843
-1.6843036 0.12786476 1.3428186
-1.6775538 0.12810059 1.3407422
-1.6714904 0.12811692 1.341283
-1.6650784 0.12824555 1.3404834
-1.6589029 0.12829834 1.3405873
-1.6525366 0.12841286 1.3399537
-1.6462134 0.12851372 1.3394812
-1.640954 0.12827112 1.3431067
-1.6344775 0.1284218 1.3420374
-1.6282816 0.12848198 1.3420472
-1.6217307 0.12865761 1.3406775
-1.6158514 0.1286152 1.3419092
-1.6088885 0.12892595 1.3389233
-1.6032138 0.12881729 1.3409449
-1.5973022 0.12878548 1.3420459
-1.5904608 0.12905832 1.3395106
-1.5850235 0.12887108 1.3424647
-1.5776883 0.12930733 1.3379737
-1.5721197 0.12916313 1.3404138
-1.5669763 0.12887818 1.3445325
-1.5610709 0.12884416 1.3456544
-1.5535712 0.1293377 1.3404737
-1.8671329 0.13131975 1.3519251
-1.860831 0.13140367 1.351692
-1.8545157 0.13149208 1.3514038
-1.848049 0.13162683 1.3505591
-1.841861 0.13167694 1.3507276
-1.8355746 0.13175729 1.3505323
-1.8292633 0.13184549 1.3502418
-1.8228601 0.13196205 1.3496094
-1.8166156 0.13203049 1.3495545
-1.8102289 0.13214272 1.3489722
-1.8040484 0.13219163 1.3491467
-1.7977743 0.13226976 1.348971
-1.7914298 0.13236985 1.3485315
-1.7853092 0.13240083 1.3489172
-1.7787619 0.1325644 1.3477137
-1.7724375 0.13265923 1.3473328
-1.7661587 0.13273987 1.3471204
-1.7597271 0.13286874 1.3463293
-1.753526 0.13292588 1.3463953
-1.7472939 0.13299286 1.3463428
-1.7412174 0.13301149 1.3468689
-1.7349286 0.13309662 1.3465967
-1.7286072 0.13319238 1.3461963
-1.7222468 0.13330071 1.3456434
-1.7158334 0.13342598 1.3448865
-1.7099429 0.13338646 1.3461035
-1.7033643 0.13356461 1.3447095
-1.6969219 0.13370012 1.3438257
-1.6900916 0.13395928 1.3414576
-1.6844492 0.13384156 1.3436085
-1.6779404 0.13399933 1.3424549
-1.6715426 0.13412216 1.3417176
-1.6656616 0.13408037 1.3429542
-1.6597687 0.13404213 1.3441455
-1.6532708 0.13419777 1.3430115
-1.6473095 0.1341816 1.343938
-1.6409454 0.1342949 1.3433094
-1.6354297 0.13413529 1.3459535
-1.6285907 0.13440216 1.3434802
-1.623219 0.13419564 1.3466846
-1.6165106 0.13442101 1.3447058
-1.6103305 0.1344761 1.3447706
-1.6032296 0.13483025 1.341244
-1.5971363 0.13485788 1.3416333
-1.5912256 0.13482599 1.342738
-1.5851938 0.13483346 1.3433679
-1.5794406 0.13474992 1.3450904
-1.5731287 0.13484909 1.3446168
-1.9497739 0.13607971 1.3573706
-1.8795764 0.13723755 1.3520349
-1.8733066 0.13731119 1.3519238
-1.8671789 0.13734192 1.3523268
-1.8608707 0.13742737 1.3520703
-1.8543957 0.13756356 1.3512012
-1.8482459 0.13760178 1.3515112
-1.8418902 0.13770226 1.3510693
-1.8353802 0.13785034 1.350055
-1.8291748 0.13790597 1.3501502
-1.8227301 0.13803467 1.3493652
-1.8164691 0.13810776 1.3492494
-1.810282 0.13815834 1.3494031
-1.8039956 0.13823952 1.3491858
-1.797832 0.13828331 1.349419
-1.791453 0.1383934 1.3488513
-1.7850684 0.13850571 1.3482568
-1.7787387 0.13860132 1.3478626
-1.7725397 0.13865678 1.3479493
-1.7660685 0.13879693 1.3470154
-1.7598603 0.13885567 1.3470606
-1.7535779 0.13893785 1.3468225
-1.7471509 0.13906503 1.3460401
-1.7409186 0.13913208 1.3459815
-1.7351416 0.1390574 1.3476306
-1.7287494 0.13917451 1.3469666
-1.7224393 0.13926651 1.346604
-1.7163589 0.13928658 1.3471069
-1.7098901 0.13942872 1.3461378
-1.7038314 0.13944229 1.3467164
-1.697239 0.13962418 1.3452649
-1.6907666 0.13976884 1.3442615
-1.6846939 0.13978745 1.3447754
-1.678162 0.13995163 1.343534
-1.6720272 0.13999031 1.343805
-1.6659387 0.14001442 1.3442494
-1.6606662 0.13977867 1.347826
-1.6535105 0.14014283 1.3441675
-1.6475312 0.14013246 1.3450257
-1.64159 0.14010972 1.3460304
-1.6357837 0.14004365 1.3475562
-1.6297055 0.14006485 1.3480299
-1.6238791 0.14000489 1.34948
-1.6179966 0.13996285 1.3507129
-1.6121073 0.13992295 1.3519202
-1.6056002 0.14008255 1.350719
-1.5988891 0.14030862 1.3487146
-1.9366095 0.14244744 1.3552467
-1.8923721 0.14305237 1.3534009
-1.8859793 0.1431617 1.3528552
-1.8798114 0.14320397 1.3531189
-1.873237 0.1433683 1.3519056
-1.8672605 0.14335366 1.3528552
-1.8608255 0.1434768 1.3521374
-1.8546011 0.14353684 1.3521814
-1.8482404 0.14363816 1.3517249
-1.8415112 0.14385125 1.3499159
-1.835263 0.1439193 1.3498584
-1.8291107 0.1439586 1.3501489
-1.8231717 0.14393334 1.3512207
-1.8165036 0.1441295 1.3496094
-1.8103198 0.14417878 1.3497754
-1.8040378 0.14425835 1.349574
-1.7977045 0.14435364 1.3491797
-1.7914286 0.14443184 1.3489929
-1.7854425 0.14442131 1.349878
-1.7787683 0.14462204 1.3482044
-1.7724106 0.14472611 1.3477002
-1.7658314 0.14489861 1.3463647
-1.759813 0.14489868 1.3471167
-1.7536777 0.144935 1.3474293
-1.7471976 0.14507805 1.3464478
-1.7409046 0.14516358 1.3461609
-1.7347543 0.14520501 1.3464075
-1.7291729 0.14506975 1.348794
-1.7224033 0.14530404 1.3467017
-1.7164133 0.14529595 1.3475451
-1.7109799 0.14511377 1.3504969
-1.7038977 0.14544709 1.3471998
-1.6973014 0.14562929 1.3457336
-1.6913931 0.14559579 1.34688
-1.6854184 0.14558327 1.347771
-1.6799814 0.14540124 1.3507154
-1.6727334 0.14579004 1.3467395
-1.6664978 0.1458603 1.3466247
-1.6604196 0.14588067 1.3471118
-1.6544962 0.14585213 1.3481909
-1.6483362 0.1458986 1.3483595
-1.6426597 0.14579149 1.3503895
-1.6376374 0.14547524 1.3549536
-1.6308838 0.14571092 1.352826
-1.6247946 0.14573479 1.3532642
-1.61917 0.14560983 1.3555055
-1.612587 0.1457921 1.3540211
-1.6057498 0.14605667 1.3515357
-1.9488314 0.14844078 1.3544837
-1.9429245 0.14840478 1.355708
-1.9364252 0.14854248 1.3548206
-1.9300839 0.14863405 1.3544922
-1.9237387 0.14872727 1.3541431
-1.9175681 0.14876916 1.3544165
-1.9112921 0.14884217 1.3543104
-1.905022 0.14891382 1.35422
-1.898602 0.14903 1.3535852
-1.8920926 0.14917305 1.3526245
-1.8858664 0.14923249 1.3526783
-1.8793811 0.14936914 1.351792
-1.8732984 0.14938629 1.3523585
-1.866836 0.14951669 1.3515455
-1.8605194 0.14960404 1.3512549
-1.8543457 0.14964883 1.3514819
-1.8480878 0.14971887 1.3513989
-1.8415936 0.14986023 1.350448
-1.8353049 0.14994012 1.350243
-1.8292066 0.14996286 1.3507324
-1.8227572 0.15009178 1.3499292
-1.81673 0.15009332 1.3506751
-1.810499 0.15015663 1.3506665
-1.8039734 0.15030953 1.3495679
-1.7976254 0.15040879 1.3491199
-1.7915293 0.1504319 1.3495972
-1.7852969 0.1504966 1.3495691
-1.7787555 0.15065567 1.3483887
-1.7728592 0.15061814 1.3496021
-1.7662876 0.15078737 1.3482971
-1.7604495 0.15073182 1.3497254
-1.7543235 0.1507647 1.3500781
-1.7482904 0.1507692 1.3507751
-1.7416397 0.15096383 1.3491541
-1.7357782 0.15091553 1.3504908
-1.7296503 0.15094963 1.350824
-1.7230109 0.15114205 1.3492273
-1.7181576 0.15078095 1.3543714
-1.711597 0.15094925 1.3530653
-1.706369 0.15070321 1.3568054
-1.6988854 0.15115982 1.3519849
-1.6922171 0.1513633 1.3502467
-1.6866122 0.15123467 1.3525537
-1.6797912 0.15148668 1.350221
-1.6743695 0.15130013 1.3532312
-1.6678275 0.15146554 1.351952
-1.6613678 0.15160546 1.3509827
-1.6552908 0.15162492 1.3514783
-1.6496357 0.15151124 1.3535962
-1.6431284 0.15166695 1.3524305
-1.9551032 0.15441163 1.354784
-1.9490155 0.15442841 1.3553674
-1.9426413 0.15452874 1.3549292
-1.9363235 0.1546129 1.3546876
-1.93012 0.15466379 1.3548511
-1.9239506 0.1547049 1.3551319
-1.9178613 0.1547226 1.3556995
-1.9114959 0.15482149 1.3552723
-1.905068 0.15493904 1.3546156
-1.8986576 0.15505181 1.3540162
-1.8927258 0.15502365 1.3551393
-1.8861178 0.1551954 1.3538172
-1.8795685 0.15534997 1.3527014
-1.8733243 0.15541489 1.3526832
-1.8668555 0.15554665 1.3518457
-1.860679 0.15559174 1.3520666
-1.8546454 0.15559441 1.3528053
-1.8481076 0.15574753 1.3517017
-1.8416007 0.15589188 1.3507044
-1.8358712 0.15580399 1.3525476
-1.829079 0.15603456 1.3504944
-1.8229916 0.15605401 1.3510218
-1.8172494 0.15596978 1.3528162
-1.8108871 0.1560721 1.3523279
-1.8048233 0.1560846 1.3529358
-1.7993591 0.15591592 1.3557618
-1.7922025 0.15625902 1.3523231
-1.7856271 0.15642694 1.3510255
-1.7792521 0.15653473 1.3504639
-1.7742294 0.15623116 1.3549353
-1.7681985 0.15623406 1.3556556
-1.7621783 0.15623346 1.3564161
-1.7556818 0.15637879 1.3553907
-1.7486777 0.15667984 1.3524573
-1.7428601 0.15661782 1.3539661
-1.737229 0.15649834 1.356178
-1.7318493 0.1563012 1.3593409
-1.7260687 0.15622696 1.3609973
-1.719484 0.15640077 1.3596156
-1.7136105 0.15635514 1.3609192
-1.7076551 0.15633461 1.3619142
-1.701442 0.15639405 1.3619287
-1.6949066 0.15655373 1.3607142
-1.6875528 0.15696877 1.3563709
-1.6817222 0.15691026 1.357826
-1.675669 0.15692094 1.3584327
-1.6680615 0.15741791 1.3530811
-1.9678034 0.16026886 1.3556958
-1.9615625 0.16032945 1.3557434
-1.9551392 0.16044274 1.3551404
-1.9489533 0.16048791 1.3553748
-1.9428247 0.16051644 1.3558118
-1.9363666 0.16064088 1.3550708
-1.9302762 0.16065857 1.3556385
-1.923974 0.16073807 1.3554456
-1.9179642 0.16073258 1.3562964
-1.9115909 0.16083321 1.3558412
-1.9057181 0.16078766 1.3571826
-1.8989942 0.16099137 1.3554578
-1.8931479 0.16093819 1.3568909
-1.8862888 0.16118264 1.3546631
-1.8800982 0.16123085 1.3548474
-1.8736905 0.16134323 1.3542396
-1.8673587 0.16143349 1.3539039
-1.8613898 0.16141686 1.3548816
-1.8548678 0.16156395 1.353844
-1.8489783 0.16152376 1.3551087
-1.8426889 0.16160241 1.354911
-1.8366079 0.16161911 1.3554736
-1.8295642 0.16192307 1.3525025
-1.8247567 0.16155984 1.3577356
-1.8190302 0.16147058 1.3595984
-1.8127228 0.16155495 1.3593237
-1.8064094 0.16164154 1.3590211
-1.8001484 0.16171242 1.35891
-1.7939762 0.16175698 1.3591236
-1.7875988 0.16186357 1.3585706
-1.7801629 0.16228998 1.3540808
-1.775701 0.16181824 1.3606434
-1.7695389 0.16186005 1.3608838
-1.7627569 0.16209023 1.3588061
-1.7565485 0.16214669 1.3588636
-1.7502826 0.16222078 1.3587036
-1.7440677 0.16227974 1.3587292
-1.7382642 0.162213 1.3603003
-1.7320071 0.16228494 1.3601636
-1.7264715 0.16213585 1.3627466
-1.7201431 0.16222969 1.3623377
-1.7142428 0.16219224 1.3635437
-1.7076856 0.16235711 1.3622583
-1.7016138 0.16237259 1.3628101
-1.9739401 0.16628113 1.3555042
-1.9678873 0.16628739 1.3562195
-1.9617355 0.16632187 1.3565845
-1.9555435 0.16636819 1.3568031
-1.9490192 0.16651033 1.3558375
-1.9431446 0.16646554 1.357179
-1.936651 0.16659929 1.3563135
-1.9301838 0.16672586 1.3555347
-1.924318 0.16667847 1.3569044
-1.9182892 0.16667847 1.3576893
-1.9120667 0.16673455 1.3577783
-1.9061404 0.16670449 1.3589307
-1.8990796 0.16700524 1.3559937
-1.8936887 0.16681923 1.3590711
-1.8872184 0.16694847 1.358252
-1.8807946 0.16706437 1.3575965
-1.8747281 0.16707574 1.35823
-1.8683765 0.16717096 1.3578284
-1.8619944 0.16727547 1.3573096
-1.8563248 0.16717018 1.3593824
-1.8498791 0.16729386 1.3586243
-1.843627 0.16736062 1.3585694
-1.8373084 0.16744713 1.3582666
-1.8316519 0.16733757 1.3603895
-1.8260983 0.16719712 1.3628931
-1.8204678 0.16707902 1.3651185
-1.8140908 0.16718309 1.364596
-1.8080878 0.16717583 1.365448
-1.802092 0.16716637 1.3663269
-1.795568 0.16731514 1.365249
-1.7893161 0.16738266 1.3651721
-1.7821994 0.16771027 1.3618774
-1.775615 0.16787866 1.3605505
-1.7696222 0.16786927 1.3614234
-1.7631378 0.16800836 1.3604566
-1.7565576 0.16817681 1.359126
-1.7504092 0.16821489 1.3594068
-1.7443075 0.16823915 1.3598584
-1.7382413 0.1682525 1.3604431
-1.7316159 0.16843614 1.3589185
-1.7264017 0.16819017 1.36271
-1.7136743 0.1683989 1.3616186
-1.9866251 0.17214699 1.3563367
-1.980535 0.17216347 1.3569263
-1.9739401 0.17232376 1.3557312
-1.9677891 0.17235802 1.3560987
-1.9615549 0.17241593 1.3561707
-1.9553733 0.1724592 1.3564246
-1.9489609 0.17256844 1.3558557
-1.943198 0.17249185 1.3575965
-1.936803 0.17259659 1.3570826
-1.9302896 0.17273568 1.3561401
-1.9243051 0.17272279 1.357085
-1.9186826 0.17260553 1.3593262
-1.9123743 0.17268585 1.3591101
-1.9067987 0.17255455 1.3615235
-1.8996185 0.17288788 1.3581617
-1.8939166 0.17279306 1.3601197
-1.8875971 0.17287752 1.3598474
-1.8805524 0.17317361 1.3569459
-1.8750836 0.17301056 1.3597474
-1.8687705 0.17309387 1.3594861
-1.8628757 0.17305504 1.3607422
-1.8571717 0.17296013 1.3626941
-1.8510938 0.17297456 1.3632861
-1.8442328 0.17321938 1.361012
-1.8387363 0.1730632 1.3637232
-1.8327905 0.17303894 1.3647925
-1.8270062 0.17296685 1.3664564
-1.8212204 0.17289498 1.368114
-1.8160111 0.1726519 1.3719019
-1.8097641 0.17271623 1.3718653
-1.8040255 0.17262964 1.3737049
-1.7973602 0.17281862 1.3721155
-1.7908734 0.17295517 1.371178
-1.7836765 0.17330423 1.3675952
-1.7752402 0.17402536 1.3593824
-1.7696664 0.17389055 1.361814
-1.7637951 0.17384477 1.3631397
-1.7575049 0.17392473 1.362898
-1.7511166 0.17403451 1.3622851
-2.0001554 0.17777802 1.3601172
-1.9938294 0.1778602 1.3598889
-1.9871912 0.17803086 1.3585559
-1.980619 0.17818329 1.3574475
-1.9738556 0.17839028 1.3556581
-1.9685471 0.17818551 1.3590076
-1.9619706 0.17834 1.3578699
-1.9557505 0.17839386 1.3579895
-1.9493731 0.17849237 1.3575488
-1.9437426 0.17837822 1.359762
-1.937269 0.17850465 1.358971
-1.9313834 0.1784633 1.3602735
-1.9246042 0.17867775 1.3583802
-1.9189727 0.17856346 1.3605921
-1.9126602 0.17864442 1.3603626
-1.9074548 0.17840706 1.3641101
-1.9009882 0.17853257 1.3633227
-1.8945889 0.17863916 1.362771
-1.8882595 0.17872567 1.3624682
-1.8822391 0.17872299 1.3632789
-1.8760568 0.17876732 1.363501
-1.8699878 0.17877892 1.3641322
-1.8630964 0.1790297 1.3617712
-1.8579886 0.17876129 1.3658973
-1.851836 0.17879732 1.3662195
-1.8453293 0.17893678 1.3652467
-1.8387707 0.17909211 1.3640747
-1.8330274 0.17900856 1.3658862
-1.8278134 0.17876908 1.3696473
-1.8216709 0.17880227 1.3699988
-1.8166958 0.17849129 1.3746521
-1.8093966 0.1788656 1.3707349
-1.8042669 0.17859948 1.3748243
-1.7824634 0.17970254 1.3633118
-1.7768964 0.17956597 1.3657764
-1.7690268 0.18011574 1.3596559
-2.1377795 0.1808635 1.3804358
-2.1294961 0.18147011 1.3736548
-2.1228478 0.18163377 1.3724244
-2.1165545 0.18170136 1.3723975
-2.1098461 0.18188234 1.3709472
-2.1032374 0.18203659 1.3698316
-2.0965774 0.18220536 1.3685328
-2.0901661 0.18230653 1.3680799
-2.0836661 0.1824321 1.3673193
-2.0768218 0.18265282 1.3653638
-2.0702317 0.18280435 1.3642762
-2.0638769 0.18289131 1.3639966
-2.0574806 0.18299004 1.3635682
-2.0506556 0.18320748 1.3616492
-2.0445211 0.18323448 1.362118
-2.0377102 0.18344903 1.360232
-2.0314379 0.18351464 1.3602136
-2.0245626 0.18374826 1.358086
-2.0124152 0.18377022 1.3594141
-2.006659 0.18369256 1.361189
-1.9998908 0.18389778 1.3594129
-1.9938169 0.18390909 1.3600684
-1.9881961 0.18379319 1.3623205
-1.9813974 0.18400811 1.3604188
-1.9750836 0.18408722 1.360221
-1.9694672 0.18396974 1.3624891
-1.9623133 0.18428612 1.3593091
-1.9568756 0.18411812 1.3622096
-1.9508963 0.18410301 1.3631897
-1.9449289 0.1840844 1.3642114
-1.9381812 0.18428749 1.3624488
-1.9323087 0.18424225 1.3638049
-1.9264252 0.18419977 1.3651233
-1.9202967 0.18422708 1.365564
-1.9141849 0.1842498 1.366062
-1.9094348 0.18388268 1.3714564
-1.9026883 0.18408692 1.3696717
-1.89591 0.184301 1.3677624
-1.8905262 0.18411446 1.370885
-1.8841248 0.18422051 1.3703308
-1.8768375 0.18458268 1.3665564
-1.8703253 0.18472177 1.3655835
-1.8642038 0.18474831 1.3660243
-1.8573697 0.18498154 1.363866
-1.852616 0.18461129 1.369292
-1.8454177 0.1849508 1.3657948
-1.8396231 0.1848826 1.3674219
-1.8340585 0.18474694 1.3698951
-1.8268726 0.18508485 1.3664148
-1.8168325 0.1844935 1.3753797
-1.8097421 0.18480447 1.3722352
-1.7974621 0.18486932 1.3729432
-2.1498051 0.18694481 1.3787611
-2.1430988 0.18712175 1.3773561
-2.1365643 0.18725289 1.3765284
-2.1291883 0.18761155 1.3728297
-2.1225553 0.18777046 1.3716493
-2.1160932 0.18788353 1.371045
-2.1097052 0.18797676 1.3706886
-2.1032839 0.18807939 1.3702136
-2.0965872 0.18825714 1.3687891
-2.0901279 0.18837082 1.3681715
-2.0836816 0.18848123 1.367594
-2.0773587 0.18855812 1.3674378
-2.0701544 0.18887666 1.3642335
-2.0637298 0.18898232 1.363711
-2.0575707 0.18901551 1.3641028
-2.0513752 0.18905869 1.3643665
-2.0450273 0.18914406 1.364098
-2.0377495 0.18948601 1.3605908
-2.031569 0.18952592 1.3608924
-2.0248983 0.18970147 1.3594812
-2.0191674 0.1896174 1.3613453
-2.013623 0.1894812 1.3638648
-2.0065274 0.18977556 1.3609509
-1.994945 0.18964012 1.3642591
-1.9889215 0.18963669 1.365099
-1.982703 0.18968804 1.3652478
-1.9756867 0.18996263 1.3625758
-1.9705118 0.18972191 1.3664087
-1.964125 0.18982071 1.3659546
-1.9577374 0.18991998 1.3654932
-1.9510688 0.19009881 1.364026
-1.9450052 0.19010736 1.3647071
-1.9386157 0.19020814 1.3642224
-1.9327881 0.19015007 1.3657422
-1.9272119 0.19002061 1.3681629
-1.9212198 0.19000879 1.3690968
-1.9156488 0.18987732 1.3715417
-1.9101899 0.1897133 1.3743958
-1.905733 0.18926309 1.3808643
-1.9003323 0.18908097 1.3839453
-1.8911737 0.18997353 1.3734498
-1.8839694 0.19030884 1.3699915
-1.8706814 0.19066063 1.3670996
-1.8651156 0.19052681 1.3695655
-1.8575659 0.19096459 1.3648059
-1.8517886 0.19089197 1.3664954
-1.840261 0.19073807 1.3699805
-2.1421447 0.19343774 1.3743409
-2.1350358 0.19372255 1.3715564
-2.1287634 0.19378351 1.3716065
-2.1221824 0.19392778 1.3705994
-2.1161466 0.19392556 1.371449
