# .PCD v0.7 - Point Cloud Data file format
VERSION 0.7
FIELDS x y z
SIZE 4 4 4
TYPE F F F
COUNT 1 1 1
WIDTH 1366
HEIGHT 1
VIEWPOINT 0 0 0 1 0 0 0
POINTS 1366
DATA ascii
-0.56558943 0.52088189 -0.046929888
-0.56091231 0.52066875 -0.042946741
-0.55562788 0.52064103 -0.04197384
-0.55073184 0.52049369 -0.039061241
-0.54405457 0.52089447 -0.04504513
-0.53997117 0.52049625 -0.038061488
-0.53371048 0.52076983 -0.041983601
-0.52937943 0.5204463 -0.03621456
-0.52405715 0.52042937 -0.035423551
-0.51870072 0.52042305 -0.034805868
-0.51369184 0.52030814 -0.0324255
-0.50843918 0.52026904 -0.031276818
-0.50367677 0.5200761 -0.027631799
-0.49850434 0.52001107 -0.02606442
-0.49349549 0.51989412 -0.02365597
-0.48816407 0.51987857 -0.02289425
-0.48330125 0.51971477 -0.0197253
-0.47847274 0.51953924 -0.016368369
-0.47362214 0.51937002 -0.013113979
-0.46725097 0.51968402 -0.0177087
-0.46229035 0.51954955 -0.015019489
-0.45645586 0.51969367 -0.01685909
-0.4509761 0.51972491 -0.016863979
-0.81839633 0.5291304 -0.12053951
-0.78500062 0.5279991 -0.098084681
-0.76534426 0.52749914 -0.087661088
-0.74891573 0.52759463 -0.087530479
-0.7428757 0.52778602 -0.090093963
-0.7361508 0.52817225 -0.09583614
-0.73108733 0.52808845 -0.093911089
-0.72657931 0.52784628 -0.089401819
-0.721304 0.52782184 -0.088446006
-0.71600223 0.52780485 -0.087613493
-0.71087158 0.52773875 -0.085980192
-0.70633638 0.52750164 -0.081556357
-0.70113128 0.52745605 -0.080261193
-0.69604063 0.52737731 -0.078424029
-0.69089234 0.52731502 -0.076855429
-0.68586791 0.52721643 -0.074697226
-0.68073761 0.52714819 -0.073035851
-0.67558169 0.52708709 -0.071490437
-0.66970366 0.52723575 -0.073371537
-0.66467804 0.52713656 -0.07120724
-0.65930027 0.5271399 -0.070717737
-0.65371919 0.52720261 -0.071198687
-0.64836121 0.52720016 -0.070617639
-0.64325559 0.52712363 -0.068826869
-0.63766783 0.52718866 -0.069349326
-0.63251251 0.52712631 -0.06779293
-0.62706053 0.52715158 -0.067667201
-0.62209105 0.52703387 -0.065208696
-0.61710268 0.52692127 -0.062833212
-0.61202681 0.52683419 -0.060876429
-0.60675842 0.52680421 -0.059853479
-0.60127521 0.52683824 -0.059876669
-0.59614652 0.52676624 -0.05816891
-0.5910126 0.52669549 -0.05648312
-0.58658051 0.52641344 -0.051345181
-0.58104265 0.52646333 -0.051632039
-0.57564807 0.52647012 -0.051217001
-0.57067841 0.52634841 -0.048702348
-0.56490982 0.52646846 -0.0501379
-0.55991608 0.52635348 -0.047735561
-0.55466491 0.52631646 -0.046607628
-0.54941851 0.52627784 -0.045454059
-0.54414523 0.5262472 -0.044432338
-0.539451 0.52603889 -0.040507771
-0.53401762 0.52605683 -0.04028194
-0.52800721 0.52625227 -0.042961389
-0.52317184 0.52608627 -0.039730191
-0.51824373 0.52594811 -0.036955528
-0.51343262 0.52577311 -0.033580281
-0.50823152 0.52571839 -0.032171588
-0.5029552 0.52568686 -0.03114376
-0.49803054 0.52554548 -0.02832027
-0.49223098 0.52567697 -0.029960899
-0.48841706 0.52518702 -0.02143795
-0.48230484 0.52541643 -0.02468258
-0.47724596 0.52531534 -0.02252193
-0.472146 0.52522689 -0.02056881
-0.46636629 0.52535278 -0.022122759
-0.46152711 0.52518129 -0.018814659
-0.45611694 0.52519035 -0.01845943
-0.4511351 0.5250631 -0.015876429
-0.87786257 0.53432924 -0.12413204
-0.86850709 0.53396785 -0.11702755
-0.86371887 0.5338158 -0.1139465
-0.85282224 0.53386557 -0.11359737
-0.84689331 0.5340203 -0.1155566
-0.83592802 0.53408968 -0.11553585
-0.82472599 0.53422403 -0.11658688
-0.82016844 0.53400707 -0.11244747
-0.81456453 0.53407502 -0.11298946
-0.80895144 0.53414583 -0.11357906
-0.80440122 0.53392547 -0.10938595
-0.79932529 0.53384876 -0.10755367
-0.79426146 0.5337683 -0.10566036
-0.78876251 0.53380752 -0.10573483
-0.78412265 0.53360945 -0.1019128
-0.77949131 0.53340828 -0.098039508
-0.77437866 0.53333992 -0.096348837
-0.76851565 0.53347969 -0.098079801
-0.76365262 0.53334159 -0.095245317
-0.75829101 0.53334206 -0.094688676
-0.7536841 0.53313154 -0.090666473
-0.74778503 0.53328204 -0.092578091
-0.74207002 0.53338158 -0.09365353
-0.7369867 0.53330374 -0.091815151
-0.73211914 0.53316492 -0.088973351
-0.72655302 0.53322268 -0.089366421
-0.72141051 0.53316081 -0.087792933
-0.71638858 0.53306442 -0.085653037
-0.71106935 0.53305227 -0.084898643
-0.7061618 0.5329228 -0.082216762
-0.70098174 0.53287059 -0.080804408
-0.69562042 0.5328697 -0.080240436
-0.69045073 0.53281409 -0.0787756
-0.68530488 0.53275156 -0.077197231
-0.68008941 0.53270859 -0.075942338
-0.67521822 0.53256631 -0.073055379
-0.66949892 0.53266823 -0.074185751
-0.66445005 0.53257668 -0.072134972
-0.65925235 0.53252786 -0.07078854
-0.653696 0.532583 -0.071152307
-0.64851868 0.5325281 -0.069705769
-0.64305788 0.53255546 -0.06961666
-0.63763517 0.53257197 -0.069348112
-0.63230193 0.53256232 -0.06865108
-0.62704378 0.53253055 -0.067590289
-0.62206483 0.5324164 -0.065175742
-0.61691409 0.53235251 -0.063588828
-0.61168963 0.53231013 -0.062357139
-0.60637909 0.53229296 -0.06154171
-0.60133362 0.53219718 -0.059433561
-0.59608686 0.53216082 -0.058303181
-0.59084302 0.53212333 -0.057155721
-0.58616531 0.53191674 -0.053226281
-0.58065259 0.531959 -0.05339352
-0.57517576 0.53199065 -0.053388629
-0.57010072 0.53190184 -0.05140011
-0.56500411 0.53181911 -0.0495129
-0.55946612 0.53186905 -0.04981197
-0.55430222 0.53180629 -0.04825436
-0.54921889 0.53171867 -0.046291471
-0.54388779 0.53170592 -0.045560259
-0.53915757 0.53151029 -0.041820031
-0.53339201 0.53162956 -0.043265339
-0.52847809 0.53148901 -0.04043331
-0.52290148 0.53155088 -0.040935021
-0.51793534 0.53142554 -0.038355671
-0.51254117 0.53143138 -0.037936971
-0.50748152 0.5313341 -0.035821501
-0.50246614 0.53122264 -0.03347408
-0.49721941 0.53118241 -0.032299768
-0.49210787 0.53110003 -0.03043209
-0.48681855 0.53107238 -0.029468959
-0.48175767 0.53097361 -0.027332729
-0.47653261 0.53092563 -0.026035119
-0.47121751 0.53090554 -0.02519894
-0.4661139 0.53081912 -0.023269
-0.46105179 0.53071916 -0.021118129
-0.45572907 0.53070086 -0.0203149
-0.45078188 0.53056389 -0.01755611
-0.9604373 0.54047537 -0.14648312
-0.9551782 0.54045296 -0.14551023
-0.95234191 0.53980517 -0.13420406
-0.94683623 0.53984511 -0.13426387
-0.93900055 0.54048896 -0.14430293
-0.93544829 0.54002351 -0.13601191
-0.9298352 0.54009211 -0.1365466
-0.92349917 0.5403493 -0.14020015
-0.91683716 0.54069245 -0.14527705
-0.91187441 0.54059267 -0.14303219
-0.89154905 0.54031426 -0.13606319
-0.88728666 0.54002786 -0.1307385
-0.8825357 0.53986949 -0.12753169
-0.86779696 0.53951997 -0.11999386
-0.86238921 0.53953451 -0.11964962
-0.8574695 0.5394187 -0.11715084
-0.85197878 0.53945518 -0.11717159
-0.84609407 0.53959751 -0.11894283
-0.84112948 0.53949326 -0.11663815
-0.83523071 0.53963983 -0.11848385
-0.82985532 0.53964591 -0.11800533
-0.82498688 0.53951508 -0.11526485
-0.81904691 0.53967369 -0.11731197
-0.81495792 0.53933108 -0.1110693
-0.80972075 0.53929901 -0.10996456
-0.80440462 0.5392884 -0.10921505
-0.79891205 0.53932577 -0.10926144
-0.79363191 0.53930521 -0.10835079
-0.78859496 0.53921789 -0.10633663
-0.78328794 0.53920454 -0.10554562
-0.77773863 0.53925759 -0.10585567
-0.77259004 0.53920043 -0.10434322
-0.76752287 0.53912061 -0.10245602
-0.76241332 0.53905231 -0.10076046
-0.75774813 0.53886038 -0.097021453
-0.75253111 0.53882104 -0.09580563
-0.7472989 0.5387857 -0.094659388
-0.74245638 0.53864157 -0.091713831
-0.73688537 0.53870052 -0.092127651
-0.73194277 0.53858352 -0.089633748
-0.7266916 0.5385527 -0.08856564
-0.72150332 0.53850412 -0.087204553
-0.71590823 0.53856987 -0.087736778
-0.71102268 0.53843558 -0.084959678
-0.7059781 0.53834569 -0.082918659
-0.70082855 0.53828537 -0.081365928
-0.69503999 0.53840601 -0.082812458
-0.69005984 0.53829718 -0.080460168
-0.68466276 0.53830683 -0.080069542
-0.67967314 0.53820008 -0.077753872
-0.6745401 0.53813404 -0.076112017
-0.66926146 0.53810936 -0.075157426
-0.66413516 0.53804076 -0.073476523
-0.65875155 0.53804594 -0.073018759
-0.65331513 0.53806651 -0.072814897
-0.64813417 0.53801316 -0.071389116
-0.64271545 0.5380286 -0.071103476
-0.63755465 0.53796899 -0.069577597
-0.63222414 0.53795874 -0.068868369
-0.62719148 0.53786159 -0.066719927
-0.62210786 0.53777868 -0.064810753
-0.61672121 0.53778428 -0.064367637
-0.61150008 0.5377413 -0.063121296
-0.60616118 0.53773278 -0.062446248
-0.60110003 0.53764242 -0.060416218
-0.59575838 0.53763443 -0.059752159
-0.59084398 0.53750008 -0.056994591
-0.58558547 0.53746712 -0.05591793
-0.58036512 0.53742254 -0.054652061
-0.57519132 0.53736407 -0.05315426
-0.5701651 0.53726119 -0.050924029
-0.56479156 0.53726178 -0.0504089
-0.55982637 0.53714007 -0.047864951
-0.55412626 0.53723842 -0.048973348
-0.54903811 0.53715307 -0.047036089
-0.54381961 0.53710663 -0.04574459
-0.53850967 0.53708756 -0.044908408
-0.53334856 0.53702337 -0.043326378
-0.52832156 0.53691816 -0.04106319
-0.52315217 0.53685588 -0.039512899
-0.51783741 0.53683752 -0.038693808
-0.51230502 0.53688562 -0.03897579
-0.50739932 0.53674203 -0.0360815
-0.50225878 0.53666985 -0.034371298
-0.49686524 0.5366751 -0.033947721
-0.49179277 0.53658158 -0.03188473
-0.48662278 0.53651762 -0.0303149
-0.48168138 0.53638262 -0.0275671
-0.47625017 0.53639895 -0.027330279
-0.47082642 0.53641301 -0.027058069
-0.46577561 0.53631103 -0.024860799
-0.46081802 0.53617936 -0.022171589
-0.45573273 0.5360871 -0.020137899
-0.45042878 0.53606302 -0.019235799
-1.0290838 0.54604113 -0.15777218
-1.0147488 0.54695404 -0.17172237
-0.98479891 0.54642904 -0.15932247
-0.97945529 0.54642969 -0.15872432
-0.97453707 0.54632235 -0.15633053
-0.96994078 0.54613245 -0.15256588
-0.96436161 0.54619253 -0.15296139
-0.95964724 0.54603195 -0.14968503
-0.95458525 0.54595971 -0.1478796
-0.94944274 0.54590774 -0.14641353
-0.94407409 0.54591388 -0.14591305
-0.93827516 0.54603052 -0.1472546
-0.93362242 0.54585218 -0.14368893
-0.92790866 0.54594719 -0.14467159
-0.92331117 0.54575378 -0.14085567
-0.91811985 0.54571348 -0.13958858
-0.91207397 0.54589504 -0.14201534
-0.90766603 0.54565102 -0.13735957
-0.90242797 0.54562247 -0.1362927
-0.89720488 0.54558992 -0.13515864
-0.89220613 0.54549861 -0.13304684
-0.88671201 0.54553664 -0.13309078
-0.88224822 0.54530436 -0.12863401
-0.87626952 0.54546976 -0.13080074
-0.87129092 0.54537207 -0.1285876
-0.86612242 0.54532427 -0.12720455
-0.86118072 0.54521608 -0.1248193
-0.85635835 0.54507601 -0.12190182
-0.85096437 0.54508704 -0.12150387
-0.8460657 0.54496646 -0.11891354
-0.8405835 0.54500097 -0.11890743
-0.83553833 0.54491884 -0.11695919
-0.8296417 0.54506415 -0.11880245
-0.82456541 0.54499018 -0.11699215
-0.81915742 0.54500496 -0.11666256
-0.81362581 0.54505318 -0.11688961
-0.80956084 0.54470581 -0.11052853
-0.80448669 0.54462999 -0.10869015
-0.79879212 0.54472178 -0.10964718
-0.79392576 0.5445891 -0.10686642
-0.78872132 0.54454798 -0.10561031
-0.78320038 0.54459274 -0.10578732
-0.77814913 0.54450959 -0.10383297
-0.77281618 0.54450303 -0.1031567
-0.7675119 0.54448861 -0.10235104
-0.76253361 0.54438478 -0.10005367
-0.75716859 0.54438674 -0.099523887
-0.75232941 0.54424381 -0.096577108
-0.74709839 0.54420853 -0.095427208
-0.74192351 0.54415756 -0.094016083
-0.73682559 0.54408509 -0.092247277
-0.73188841 0.54396755 -0.089728966
-0.72620332 0.54405779 -0.090676233
-0.72150147 0.54387414 -0.087056853
-0.71601349 0.54390949 -0.087089807
-0.71061647 0.54391938 -0.086700402
-0.70563781 0.54381198 -0.084355429
-0.70037264 0.54378474 -0.083348349
-0.69508731 0.54376298 -0.082434036
-0.6898877 0.54371691 -0.081115678
-0.68449432 0.54372549 -0.080709189
-0.67934358 0.54366535 -0.079156458
-0.67430234 0.54357386 -0.077082478
-0.66922486 0.54349226 -0.07517574
-0.66375518 0.54352218 -0.07512936
-0.65858245 0.54346728 -0.073668167
-0.6535126 0.5433827 -0.071715049
-0.64822173 0.54336131 -0.070815392
-0.64259702 0.54343575 -0.071516082
-0.63759887 0.54332983 -0.06920895
-0.63240176 0.54328108 -0.067856409
-0.62695497 0.54330426 -0.067705043
-0.62196261 0.54319572 -0.065357633
-0.6167227 0.54315883 -0.064205281
-0.61142182 0.5431394 -0.063345909
-0.60631257 0.543064 -0.0615527
-0.6010744 0.54302585 -0.060384478
-0.5957756 0.54300547 -0.05951168
-0.59057051 0.54295737 -0.058178671
-0.58548766 0.54287308 -0.056242641
-0.58021712 0.54284376 -0.055224571
-0.57502335 0.54279172 -0.05382809
-0.56968462 0.54278237 -0.053144488
-0.56469423 0.54266948 -0.050734829
-0.55938417 0.54265124 -0.049905971
-0.55429822 0.54256606 -0.04796017
-0.54889953 0.54257399 -0.047570761
-0.54354399 0.54256898 -0.04696529
-0.53869891 0.54241085 -0.04380367
-0.53318113 0.54245424 -0.044009969
-0.52811676 0.5423612 -0.041938439
-0.52278185 0.5423494 -0.041224331
-0.51771641 0.54225612 -0.039149128
-0.51248676 0.54221207 -0.037899129
-0.50730544 0.54215318 -0.036401328
-0.50203246 0.54212195 -0.035367388
-0.49662736 0.54213089 -0.035004839
-0.49148056 0.54206079 -0.03332394
-0.48647568 0.54194695 -0.030911829
-0.48110032 0.54194641 -0.030394249
-0.47602218 0.54185432 -0.028348349
-0.47067598 0.54184449 -0.027678179
-0.46553636 0.54177088 -0.025941119
-0.46038559 0.54170018 -0.02425655
-0.45499635 0.54170334 -0.02380611
-0.44925979 0.54181463 -0.025164759
-1.0901825 0.55341852 -0.19961543
-1.0624353 0.55238551 -0.17856197
-1.0566946 0.55248451 -0.17959712
-1.052313 0.55225044 -0.17505489
-1.0475501 0.55210924 -0.17206904
-1.0426422 0.55200326 -0.1696728
-1.0370777 0.55205882 -0.16998409
-1.0312082 0.55218995 -0.17156246
-1.026575 0.55201554 -0.16802365
-1.0210785 0.55205446 -0.16805904
-1.0160437 0.55197895 -0.16617794
-1.0053445 0.55198389 -0.16503415
-0.99979401 0.55203658 -0.16530514
-0.99506563 0.55188364 -0.16213131
-0.98995328 0.55182648 -0.16056393
-0.98463136 0.55182165 -0.15987423
-0.97935915 0.55180442 -0.15897702
-0.97390318 0.55183333 -0.15885372
-0.96912992 0.55168992 -0.15584469
-0.96385252 0.55167359 -0.15496577
-0.95857149 0.55165815 -0.15410274
-0.95351958 0.5515843 -0.15226191
-0.94846952 0.5515098 -0.15041134
-0.94382811 0.5513308 -0.14681026
-0.93810058 0.55142856 -0.14784786
-0.9334439 0.55125266 -0.14430051
-0.92766112 0.55136478 -0.14558102
-0.92248935 0.55132043 -0.14424068
-0.91786075 0.55113602 -0.14055294
-0.91204441 0.55125719 -0.14198971
-0.90660465 0.55128145 -0.14180294
-0.90253448 0.55095154 -0.13567746
-0.89698362 0.55100411 -0.13596676
-0.89174378 0.5509761 -0.13490596
-0.8865912 0.55092537 -0.13346554
-0.8812201 0.55093127 -0.13297604
-0.87619692 0.55084634 -0.13096432
-0.87108094 0.55078548 -0.12935543
-0.86607027 0.55069655 -0.12727901
-0.86065066 0.55071491 -0.12700069
-0.85590762 0.55055511 -0.12373775
-0.8511737 0.55039245 -0.12042477
-0.8458032 0.55039722 -0.11992306
-0.84032685 0.55043 -0.11989254
-0.83518249 0.55037493 -0.11838863
-0.82973695 0.55039966 -0.11822384
-0.82427949 0.55042756 -0.1181152
-0.81902069 0.55040264 -0.11712032
-0.81371278 0.55039072 -0.11634518
-0.80855161 0.55033934 -0.11490963
-0.80418581 0.55007452 -0.10989132
-0.79875028 0.55009621 -0.10968136
-0.79346836 0.55007654 -0.10878048
-0.78843874 0.54998863 -0.10673458
-0.78317565 0.54996359 -0.10574459
-0.77806062 0.54989839 -0.10408077
-0.77272189 0.5498935 -0.10343258
-0.76752079 0.5498513 -0.10215694
-0.76239866 0.54978722 -0.10051632
-0.75725037 0.54973006 -0.098992877
-0.75211424 0.5496695 -0.097412072
-0.74686188 0.54964042 -0.096361049
-0.74162871 0.54960603 -0.09522213
-0.73630738 0.54959565 -0.094488487
-0.7313965 0.54947215 -0.091854207
-0.72626495 0.54940897 -0.090235561
-0.721012 0.54937929 -0.08917965
-0.71587741 0.54931647 -0.087569542
-0.71049744 0.54932165 -0.087102011
-0.70543456 0.54923868 -0.085152552
-0.70018435 0.54920745 -0.08407589
-0.69478333 0.54921848 -0.083708458
-0.68949127 0.54919875 -0.082827106
-0.68451262 0.5490911 -0.080468707
-0.67899841 0.54913354 -0.080633506
-0.67422152 0.54896837 -0.077310748
-0.66901517 0.54892391 -0.076015592
-0.66374481 0.54889727 -0.075023159
-0.65852296 0.54885674 -0.073797569
-0.65363401 0.54872137 -0.070980191
-0.64783478 0.54884493 -0.072513387
-0.64268219 0.54878426 -0.07095211
-0.63743532 0.54875034 -0.069841273
-0.63217133 0.54872108 -0.068810999
-0.62710875 0.54863399 -0.066807821
-0.62207794 0.54853719 -0.064644739
-0.61667269 0.54854816 -0.064291947
-0.61149168 0.54849428 -0.062851518
-0.60632521 0.54843581 -0.061335411
-0.60098815 0.54842681 -0.060650598
-0.59587371 0.54835296 -0.05887692
-0.59049302 0.54835641 -0.05840328
-0.58543074 0.54826677 -0.056367148
-0.58029753 0.54819757 -0.054674029
-0.57484835 0.54822075 -0.054536089
-0.56981373 0.54812211 -0.052351039
-0.56448287 0.54811037 -0.051627159
-0.55916548 0.54809451 -0.050836138
-0.55382735 0.54808474 -0.050148889
-0.54885179 0.54796743 -0.047653768
-0.54369491 0.54790348 -0.046055868
-0.53848892 0.54785377 -0.044700891
-0.53324401 0.54781556 -0.043538779
-0.52797621 0.54778403 -0.042488981
-0.52291459 0.54769051 -0.04039913
-0.51761097 0.54766941 -0.039526328
-0.51224548 0.54766661 -0.03896603
-0.50705945 0.54760981 -0.03749508
-0.50194323 0.54753149 -0.035665251
-0.49683687 0.54744995 -0.033780478
-0.4914766 0.54744506 -0.03318844
-0.48633102 0.5473749 -0.031497758
-0.48101944 0.54735506 -0.030654259
-0.476008 0.5472433 -0.02826534
-0.47049958 0.54728323 -0.02843258
-0.46517807 0.54726607 -0.027637899
-0.46018982 0.54714614 -0.02511471
-0.45492858 0.54711002 -0.024002649
-0.44966233 0.54707515 -0.02291378
-1.1021463 0.55844396 -0.1954504
-1.0977392 0.55822253 -0.19108517
-1.0922287 0.55826539 -0.19117671
-1.0867004 0.55831254 -0.19134274
-1.0773916 0.55798537 -0.18457027
-1.0718313 0.55804008 -0.18486568
-1.0668411 0.55795687 -0.18283688
-1.0617359 0.55790114 -0.18127316
-1.056749 0.55781657 -0.17922238
-1.0509976 0.55791777 -0.18030758
-1.0463607 0.55774742 -0.17681271
-1.04138 0.55766052 -0.17472652
-1.0356241 0.55776322 -0.17583857
-1.0306729 0.55766875 -0.17362668
-1.0258542 0.55754143 -0.17086056
-1.0209125 0.5574438 -0.16859737
-1.0155954 0.55743843 -0.16789182
-1.0102985 0.55742812 -0.16710323
-1.0053244 0.55733782 -0.16496578
-1.0001266 0.55730265 -0.16375972
-0.99519378 0.55720162 -0.16144283
-0.9895587 0.55727488 -0.16206905
-0.98426455 0.55726331 -0.16126584
-0.97898012 0.55724943 -0.16042233
-0.9737851 0.55721307 -0.1592004
-0.96892637 0.55709219 -0.15655392
-0.96364957 0.55707586 -0.15567379
-0.95871061 0.55697447 -0.15335812
-0.95341611 0.55696243 -0.15255123
-0.94810426 0.55695456 -0.15181637
-0.94345182 0.55677992 -0.14826535
-0.9381671 0.55676484 -0.14741085
-0.93305695 0.55670547 -0.14580807
-0.92785645 0.5566687 -0.14458981
-0.92213744 0.55676401 -0.14560176
-0.91691774 0.55673224 -0.14446896
-0.91257936 0.55647469 -0.13952389
-0.90669525 0.55661249 -0.14125729
-0.90182984 0.55648911 -0.13858028
-0.89705873 0.55634117 -0.13548824
-0.89190704 0.55629057 -0.13404293
-0.88658875 0.55628288 -0.13332272
-0.88131595 0.55626333 -0.13240352
-0.8765018 0.55612487 -0.12947628
-0.87115937 0.55612314 -0.1288586
-0.86604095 0.55606288 -0.12725461
-0.86158663 0.55582935 -0.12272335
-0.85610932 0.55586213 -0.12269405
-0.85096377 0.55580825 -0.12119991
-0.84573334 0.55577636 -0.12007931
-0.84064513 0.55570704 -0.11832638
-0.83526182 0.55571508 -0.11788204
-0.82967651 0.55577648 -0.11834103
-0.82446045 0.55574042 -0.1171545
-0.81893373 0.55578655 -0.11735714
-0.81375492 0.55574054 -0.11600338
-0.8088724 0.55561554 -0.11331539
-0.80379182 0.55554277 -0.11151119
-0.798949 0.55540633 -0.10863155
-0.79372287 0.55537176 -0.10747555
-0.78858888 0.55531245 -0.10590206
-0.7831012 0.55534774 -0.10592892
-0.77768099 0.5553652 -0.10565548
-0.77275974 0.55524814 -0.10310787
-0.76740175 0.55524844 -0.10254635
-0.76246065 0.55513597 -0.10007931
-0.75736117 0.55506605 -0.09833248
-0.75208378 0.55504417 -0.097398639
-0.74682188 0.55501789 -0.096391559
-0.74129027 0.55506521 -0.096630819
-0.73639005 0.55493999 -0.093952596
-0.73150694 0.55480963 -0.091187708
-0.72621095 0.55479211 -0.090333208
-0.72094941 0.55476493 -0.089316368
-0.71588254 0.55468416 -0.087392539
-0.71056062 0.55467325 -0.086652793
-0.7056641 0.55454475 -0.083924517
-0.70024168 0.55456138 -0.083653532
-0.69535613 0.55442911 -0.080861777
-0.68983948 0.55447185 -0.0810339
-0.68453795 0.55445474 -0.08019527
-0.67926151 0.55443054 -0.079237022
-0.674155 0.5543586 -0.07747189
-0.66876072 0.55436724 -0.077070266
-0.66389591 0.55422699 -0.074150346
-0.65857363 0.55421495 -0.073403277
-0.65325135 0.55420285 -0.072654992
-0.64792269 0.55419266 -0.07193844
-0.64269835 0.55415261 -0.070720181
-0.63744903 0.55411971 -0.069621541
-0.63207185 0.55412292 -0.069136918
-0.627312 0.55395013 -0.065672569
-0.62213624 0.55389541 -0.064208947
-0.6169678 0.55383843 -0.062707476
-0.61152911 0.5538587 -0.062515832
-0.60606229 0.55388719 -0.062463339
-0.6010257 0.55379176 -0.060313679
-0.59579104 0.55375308 -0.059127159
-0.59044218 0.55374736 -0.058498498
-0.58516616 0.55372041 -0.057512168
-0.57993621 0.55368 -0.056298789
-0.57468551 0.55364543 -0.055185508
-0.56987292 0.55348283 -0.051904261
-0.56445146 0.55349755 -0.051628381
-0.5593161 0.55342853 -0.049934041
-0.55418473 0.55335802 -0.048215289
-0.54880643 0.55335987 -0.047724571
-0.54374039 0.55326968 -0.045675009
-0.53854311 0.55321777 -0.044274859
-0.53329039 0.55318213 -0.043151818
-0.52803755 0.55314636 -0.04202633
-0.52262557 0.55315781 -0.04170284
-0.51749206 0.55308616 -0.03997311
-0.51233751 0.55302054 -0.038345911
-0.50701308 0.55300546 -0.037575651
-0.50202549 0.55288923 -0.035092741
-0.49663788 0.55289286 -0.03464108
-0.49137437 0.55285907 -0.033557091
-0.48626238 0.55277914 -0.0316943
-0.48117402 0.55269188 -0.02970577
-0.47557282 0.55275989 -0.0303503
-0.47064224 0.55262411 -0.02754147
-0.46534792 0.55259871 -0.026605189
-0.46014711 0.55254453 -0.02518185
-0.45499802 0.55247432 -0.02348751
-0.44979692 0.55241966 -0.02205807
-1.1027265 0.56364667 -0.19295773
-1.097428 0.56363887 -0.19219235
-1.0923477 0.5635789 -0.19054317
-1.0875657 0.56344748 -0.18768185
-1.0825248 0.56337756 -0.18586423
-1.0772336 0.56336731 -0.18506344
-1.0718548 0.56337816 -0.18462032
-1.0667523 0.56332242 -0.18304928
-1.0613211 0.56334579 -0.18282101
-1.0567175 0.56316948 -0.1792004
-1.0508505 0.56329799 -0.18076168
-1.0464016 0.56308341 -0.17649411
-1.0411469 0.56306368 -0.17553706
-1.0361258 0.56298697 -0.17361446
-1.0311655 0.56289512 -0.17143551
-1.0256766 0.56293207 -0.17144527
-1.0205646 0.562877 -0.16989131
-1.0151761 0.5628894 -0.16948727
-1.0101868 0.5628038 -0.16741817
-1.0050513 0.56275392 -0.16595577
-1.0002893 0.56261176 -0.16292721
-0.99487031 0.56263131 -0.16264766
-0.99005252 0.56250238 -0.15984371
-0.98435271 0.56259102 -0.16074337
-0.9791913 0.56254667 -0.15937984
-0.97401518 0.56250578 -0.15807734
-0.96886533 0.56245822 -0.15666135
-0.96321869 0.56253427 -0.15734982
-0.95812589 0.56247228 -0.1556921
-0.95331603 0.56233925 -0.15282467
-0.94822574 0.56227607 -0.15114743
-0.94328523 0.56217492 -0.14882565
-0.93789613 0.56218636 -0.14841916
-0.93262267 0.5621686 -0.14751826
-0.92769378 0.56206381 -0.14513791
-0.92257172 0.56200743 -0.14358027
-0.91703767 0.56205535 -0.14380001
-0.91186678 0.56201124 -0.14245358
-0.90635711 0.56205308 -0.14257076
-0.90150607 0.56192714 -0.13983516
-0.89636719 0.56187427 -0.13834225
-0.89159209 0.561728 -0.13526241
-0.88668853 0.56161422 -0.13273557
-0.88133574 0.56161535 -0.13216549
-0.87599182 0.56161422 -0.13155758
-0.87086272 0.56155771 -0.1300085
-0.86588228 0.56146246 -0.12780148
-0.86085051 0.56138015 -0.12581539
-0.85562378 0.5613482 -0.12468624
-0.85071379 0.56123376 -0.1221545
-0.84562528 0.56116521 -0.12040646
-0.84016019 0.56119472 -0.12032711
-0.83511752 0.56111407 -0.11837276
-0.82984257 0.56109369 -0.11744747
-0.82431948 0.56113845 -0.1176318
-0.819444 0.56101322 -0.11492062
-0.81432313 0.56095195 -0.11330196
-0.80905485 0.56092936 -0.11234249
-0.80410796 0.56082171 -0.10993526
-0.79901153 0.56075323 -0.10819698
-0.79363829 0.56075805 -0.10770626
-0.78854156 0.56068927 -0.1059631
-0.78341794 0.5606274 -0.10433956
-0.7781738 0.56059748 -0.10326046
-0.77272707 0.56062156 -0.10310421
-0.76819122 0.56040156 -0.098789021
-0.7623654 0.56052721 -0.10036373
-0.75691223 0.56055307 -0.10023922
-0.75171024 0.56051117 -0.098962359
-0.74701661 0.56033182 -0.095342979
-0.74179476 0.56029475 -0.094150349
-0.73658234 0.56025493 -0.09291134
-0.7314676 0.56018847 -0.091218218
-0.72619385 0.56016493 -0.090259969
-0.72105563 0.56010443 -0.088670619
-0.7157492 0.56008959 -0.087861292
-0.71079344 0.55997854 -0.085413776
-0.70545077 0.55997336 -0.084770471
-0.70027101 0.55992323 -0.083362997
-0.69509858 0.55987102 -0.081920132
-0.68982482 0.55984652 -0.080950886
-0.68458986 0.55981112 -0.079797328
-0.67933959 0.55977982 -0.078714557
-0.67417723 0.55972391 -0.077213101
-0.66881198 0.55972433 -0.076674767
-0.66390228 0.55959761 -0.073967248
-0.6588797 0.55950189 -0.071789511
-0.6534552 0.55951834 -0.071527056
-0.6479373 0.55956125 -0.071715049
-0.64262235 0.55954713 -0.070932582
-0.63781005 0.5593912 -0.067731902
-0.63233066 0.55942315 -0.067736782
-0.62723386 0.5593468 -0.06589596
-0.6221506 0.55926639 -0.063986778
-0.61693329 0.55922365 -0.06272091
-0.61150253 0.55924159 -0.062491421
-0.60630095 0.55919409 -0.061147418
-0.60109985 0.55914629 -0.05979855
-0.59564239 0.55917174 -0.059700891
-0.59050602 0.55910516 -0.05803341
-0.58534515 0.55904514 -0.05647945
-0.58023119 0.55897146 -0.054693568
-0.57499224 0.55893362 -0.053519249
-0.56986952 0.55886185 -0.051767539
-0.56456894 0.55884147 -0.050893519
-0.55927157 0.55882007 -0.0500024
-0.55453962 0.55863357 -0.046296351
-0.5491876 0.55862755 -0.045670129
-0.54390639 0.55860072 -0.044691119
-0.53862351 0.55857438 -0.043719441
-0.53336942 0.55853927 -0.04260128
-0.52810651 0.55850661 -0.041525841
-0.52303421 0.55841768 -0.039488491
-0.51785964 0.55835849 -0.03796139
-0.5124507 0.5583685 -0.037618369
-0.50713056 0.55835229 -0.03682613
-0.50201768 0.55827415 -0.034979209
-0.49696565 0.55817747 -0.032816119
-0.49158326 0.55817926 -0.03233517
-0.48621812 0.55817592 -0.03176754
-0.48107728 0.55810511 -0.030048789
-0.47589004 0.55804789 -0.02856442
-0.47056609 0.55803168 -0.027780719
-0.46546096 0.55794924 -0.025866659
-0.46001664 0.55796927 -0.025704309
-0.45502976 0.55785036 -0.02316891
-0.44986632 0.55778456 -0.021542929
-1.1026572 0.56900465 -0.19308834
-1.0974597 0.568973 -0.19191402
-1.0924561 0.56889534 -0.1899548
-1.0872098 0.56887496 -0.1889758
-1.0817496 0.56890535 -0.18886593
-1.0765606 0.56887114 -0.18765377
-1.0720475 0.56867588 -0.18368404
-1.0669192 0.5686267 -0.18221676
-1.0611688 0.56872612 -0.18329464
-1.0562598 0.56862444 -0.18092892
-1.0512701 0.56854159 -0.1788879
-1.0460407 0.56851614 -0.17783077
-1.0408169 0.56848913 -0.17674801
-1.0359116 0.56838524 -0.17434932
-1.0307007 0.5683549 -0.17321041
-1.0257905 0.56825155 -0.17082395
-1.0208182 0.56816292 -0.16868892
-1.0150526 0.56826675 -0.16985103
-1.010651 0.56803882 -0.16533199
-1.0052555 0.56805253 -0.16495235
-1.0001434 0.56799698 -0.16338862
-0.99478364 0.56800193 -0.16286129
-0.98973113 0.56793135 -0.16104244
-0.98442441 0.56792313 -0.16029172
-0.97907686 0.56792486 -0.1597131
-0.97405761 0.5678457 -0.15774776
-0.96864688 0.56786293 -0.15743649
-0.96368468 0.56776911 -0.15522335
-0.95824188 0.5677942 -0.15504879
-0.95308256 0.56774896 -0.1536694
-0.94818026 0.56763941 -0.15119015
-0.94294649 0.56761223 -0.15012325
-0.93807709 0.56749392 -0.14749385
-0.932778 0.56748271 -0.14670162
-0.92786771 0.56737387 -0.14423823
-0.92266661 0.56733775 -0.1430212
-0.91709441 0.56739485 -0.1434045
-0.91224456 0.56727004 -0.14066891
-0.90715152 0.5672062 -0.13897945
-0.90185821 0.56719279 -0.13815548
-0.89684629 0.56710786 -0.13610835
-0.89210755 0.56695336 -0.1328674
-0.88674778 0.56695634 -0.13232662
-0.88151491 0.56692684 -0.13123165
-0.8762067 0.56691653 -0.13046627
-0.87122011 0.56682372 -0.12828854
-0.86602843 0.56678331 -0.12700802
-0.86092192 0.56672078 -0.1253503
-0.85570192 0.56668723 -0.12419064
-0.8508743 0.56655228 -0.12129269
-0.84566557 0.56651533 -0.12007687
-0.84025663 0.56653017 -0.1197485
-0.83496153 0.56651545 -0.11891598
-0.82981235 0.56646264 -0.1174316
-0.82453281 0.56644374 -0.11652828
-0.8193872 0.56638968 -0.11502438
-0.8143701 0.56630182 -0.11294064
-0.80944091 0.5661906 -0.1104565
-0.80429322 0.56613624 -0.10895016
-0.7991696 0.56607544 -0.10733273
-0.79374421 0.56609386 -0.10707638
-0.78863037 0.56602997 -0.10541012
-0.78367645 0.56592363 -0.1030151
-0.77849424 0.56587738 -0.10165157
-0.77307218 0.56589454 -0.10137936
-0.76767915 0.56590414 -0.10097652
-0.76254517 0.56584466 -0.099389613
-0.75725615 0.56582642 -0.098510697
-0.75232333 0.56571257 -0.095993608
-0.74701262 0.56569976 -0.095209919
-0.74178529 0.56566453 -0.094042927
-0.73646331 0.56565446 -0.093310513
-0.7312851 0.56560564 -0.091911577
-0.72629917 0.56550461 -0.0896191
-0.72097111 0.56549585 -0.088911086
-0.71590275 0.56541663 -0.086993366
-0.71045744 0.56543952 -0.08683224
-0.70547396 0.5653367 -0.08451046
-0.70032531 0.56527847 -0.08295773
-0.6953842 0.56516325 -0.080425993
-0.69005615 0.5651536 -0.079709433
-0.68451661 0.56520212 -0.079991423
-0.6795578 0.56509078 -0.077530481
-0.67463684 0.56496871 -0.074885219
-0.66881651 0.56509459 -0.076500207
-0.66390288 0.56496996 -0.073812217
-0.65881991 0.56489176 -0.071923792
-0.65384066 0.56478435 -0.069533646
-0.64841491 0.56480086 -0.06927608
-0.64319032 0.56476134 -0.068054162
-0.63781983 0.56476253 -0.067534141
-0.63282561 0.56465805 -0.065198943
-0.62799561 0.56450707 -0.062065389
-0.62234312 0.56458712 -0.062902786
-0.61733705 0.56448495 -0.060610309
-0.61176074 0.56454366 -0.06108395
-0.60623187 0.56458926 -0.061331749
-0.60118347 0.56449842 -0.05923824
-0.59583449 0.56449282 -0.058609579
-0.59080416 0.56439638 -0.056419641
-0.58558154 0.56435442 -0.055167198
-0.58047163 0.56427985 -0.053356901
-0.57540345 0.56419313 -0.051336631
-0.56980073 0.56425971 -0.051955529
-0.56474519 0.56416887 -0.049866911
-0.55944049 0.56414962 -0.049011189
-0.55458814 0.56399935 -0.045902058
-0.54918212 0.56400901 -0.045545619
-0.54426193 0.5638774 -0.042761188
-0.53868347 0.56393713 -0.043266561
-0.53362507 0.56384522 -0.041165728
-0.52807462 0.56389678 -0.04153439
-0.52315903 0.56376243 -0.03870602
-0.51796997 0.56370789 -0.03725094
-0.51289797 0.5636186 -0.03520016
-0.50747681 0.56363201 -0.03491573
-0.50200886 0.56365931 -0.034871791
-0.49694428 0.56356704 -0.03277218
-0.49171737 0.5635227 -0.031497758
-0.4863849 0.56350952 -0.03076046
-0.48134109 0.5634101 -0.02854122
-0.47589248 0.5634315 -0.02839962
-0.4705992 0.56340617 -0.027457239
-0.46541521 0.563348 -0.02595089
-0.4605017 0.5632081 -0.02303829
-0.45531645 0.56314957 -0.021527059
-0.44991121 0.56315726 -0.02115719
-1.1025836 0.57436341 -0.19323605
-1.0964001 0.57456315 -0.19604854
-1.091756 0.57440215 -0.19264156
-1.0868933 0.57429194 -0.19011106
-1.0817188 0.57425487 -0.18884274
-1.0768747 0.57413954 -0.18622677
-1.0715588 0.57413542 -0.18552853
-1.0669553 0.57396257 -0.18192013
-1.0615518 0.5739789 -0.18157712
-1.0566168 0.57388389 -0.17931515
-1.0515751 0.57381392 -0.1774853
-1.0463126 0.57379645 -0.17656124
-1.0413846 0.57369888 -0.17425777
-1.0359466 0.57372314 -0.17405514
-1.0309589 0.57363939 -0.17199215
-1.0260354 0.57353997 -0.16965817
-1.0206934 0.57354099 -0.16905758
-1.015293 0.57355601 -0.16870113
-1.0105096 0.57342196 -0.16577268
-1.005375 0.57337236 -0.16430415
-1.0002792 0.5733133 -0.16267087
-0.99515963 0.57325965 -0.161134
-0.98969209 0.57329071 -0.16105831
-0.98462003 0.57322526 -0.1593188
-0.97920412 0.57324362 -0.15902705
-0.97400969 0.57320786 -0.15780148
-0.96862185 0.5732193 -0.15739255
-0.96368712 0.57311952 -0.15506344
-0.95852143 0.57307625 -0.15371212
-0.95317781 0.57307655 -0.15311398
-0.94815522 0.57299769 -0.15114863
-0.94302917 0.57294405 -0.14962032
-0.93771088 0.57293785 -0.14891353
-0.93251312 0.57290167 -0.14768916
-0.92754668 0.57280785 -0.14546993
-0.92290437 0.57263285 -0.14184932
-0.91734892 0.57268518 -0.14215694
-0.91228485 0.57261485 -0.14034542
-0.90784729 0.57238704 -0.1358166
-0.90255737 0.5723725 -0.13497189
-0.89733768 0.57234031 -0.13382198
-0.89217621 0.57229328 -0.13241817
-0.88699222 0.57225174 -0.13110958
-0.88160831 0.57226068 -0.1306738
-0.87617493 0.57228202 -0.13045529
-0.87097538 0.57224417 -0.12921382
-0.86625487 0.57208431 -0.125863
-0.86139953 0.57195801 -0.12309567
-0.85605711 0.57195574 -0.12247189
-0.85073763 0.57194763 -0.12174801
-0.84556943 0.57190055 -0.12035275
-0.84041595 0.57184958 -0.11889034
-0.83524108 0.57180405 -0.11752193
-0.8299396 0.57179075 -0.11671383
-0.82469606 0.57176262 -0.11564816
-0.81963652 0.57168663 -0.11375729
-0.81428039 0.5716874 -0.11319332
-0.80957979 0.57151759 -0.10968258
-0.80445373 0.57145798 -0.10807735
-0.79925907 0.57141602 -0.10677853
-0.79394776 0.5714044 -0.10600582
-0.78902191 0.57129174 -0.10348629
-0.78350919 0.57133269 -0.10362423
-0.77872437 0.57118225 -0.10045406
-0.7736215 0.5711152 -0.09872555
-0.76791048 0.57120836 -0.09976925
-0.76322544 0.57103044 -0.096125446
-0.75723082 0.57119906 -0.098476522
-0.75234926 0.57107252 -0.09572506
-0.74689543 0.57109779 -0.095599331
-0.74212188 0.57094181 -0.09233883
-0.73711306 0.57084811 -0.090156212
-0.73169404 0.57086372 -0.089866906
-0.72611177 0.57092333 -0.090339318
-0.72114444 0.57081783 -0.087955281
-0.71579224 0.57081544 -0.087358363
-0.71092469 0.57068223 -0.084498249
-0.70607883 0.57054269 -0.081528276
-0.70051575 0.57059693 -0.081914023
-0.69556552 0.57048494 -0.079422571
-0.69031858 0.57045329 -0.078322716
-0.68483824 0.57048506 -0.078322716
-0.6800397 0.57033068 -0.075101279
-0.67481416 0.57029253 -0.07389278
-0.6695227 0.57027239 -0.072996788
-0.66434693 0.57022029 -0.071547806
-0.65902799 0.57020748 -0.070781209
-0.65410006 0.5700866 -0.068144493
-0.64828157 0.57021147 -0.069763146
-0.64361727 0.5700171 -0.065855667
-0.63834625 0.5699904 -0.064851038
-0.63303465 0.56997478 -0.064040489
-0.62783629 0.56992745 -0.062683068
-0.62244296 0.56993461 -0.062269248
-0.61750674 0.56981355 -0.059636191
-0.61194718 0.56986707 -0.060026821
-0.60665071 0.56984681 -0.059140589
-0.6015051 0.56978387 -0.057517048
-0.59625429 0.56975043 -0.056404989
-0.59095156 0.56973153 -0.055545621
-0.58580077 0.56966925 -0.053937949
-0.58066237 0.56960344 -0.05226681
-0.57558703 0.56951928 -0.05028072
-0.57023728 0.56951308 -0.04964596
-0.56500566 0.56947303 -0.04842525
-0.56002533 0.56936067 -0.045954548
-0.55502611 0.56925344 -0.04357174
-0.54956347 0.56927896 -0.04349117
-0.5444597 0.56920123 -0.041621059
-0.53945208 0.56909525 -0.039263878
-0.53411955 0.56908286 -0.038530238
-0.52859449 0.56912649 -0.038767051
-0.52331698 0.56909823 -0.037758749
-0.51887101 0.56882715 -0.032543909
-0.51315248 0.56892699 -0.03375851
-0.50788575 0.56889498 -0.032687951
-0.50266773 0.56884843 -0.031367149
-0.49710268 0.56890374 -0.031813931
-0.49168459 0.56891596 -0.031513631
-0.48659804 0.56883019 -0.029516559
-0.48126543 0.56881702 -0.028779259
-0.47588822 0.56881702 -0.02827023
-0.4709259 0.56869346 -0.025621299
-0.46566758 0.5686577 -0.02449459
-0.46063828 0.56855327 -0.02217892
-0.45562851 0.56844246 -0.0197546
-0.45020249 0.56845611 -0.019488489
-1.1023459 0.57975996 -0.19404781
-1.0969718 0.57977003 -0.19359004
-1.0916333 0.57977188 -0.19299068
-1.0870453 0.57959837 -0.18934689
-1.0822455 0.57947391 -0.18655393
-1.0775867 0.57931572 -0.18317866
-1.0719622 0.57938391 -0.18373531
-1.0671664 0.57925731 -0.1809094
-1.061864 0.57924968 -0.18015133
-1.0569122 0.57915926 -0.17795528
-1.0515301 0.57917017 -0.17752193
-1.0464172 0.57911736 -0.17598262
-1.0410022 0.57913613 -0.17568722
-1.0359198 0.57907587 -0.17401852
-1.0306708 0.57905501 -0.17303707
-1.0255831 0.57899553 -0.17138545
-1.0205029 0.57893419 -0.16970089
-1.0154889 0.57885659 -0.16773678
-1.0099436 0.57890636 -0.1679858
-1.0051197 0.5787828 -0.16522335
-1.0002695 0.57866508 -0.16256344
-0.995242 0.57858974 -0.16064084
-0.98990721 0.57858837 -0.16000484
-0.98508424 0.57846308 -0.15721676
-0.9792136 0.57859141 -0.15883908
-0.97423369 0.57850373 -0.1567065
-0.96842319 0.57861793 -0.1580859
-0.9635095 0.5785138 -0.15566891
-0.95856994 0.57841569 -0.15335689
-0.95320314 0.57842171 -0.15285763
-0.948129 0.57835609 -0.15111202
-0.94313383 0.57827067 -0.14902462
-0.93790406 0.57824278 -0.14793819
-0.93295962 0.57814431 -0.14562497
-0.92808688 0.57802778 -0.14299923
-0.92310119 0.57793891 -0.14085323
-0.91773105 0.57794487 -0.14036007
-0.91293854 0.57780731 -0.13737057
-0.90788299 0.57773483 -0.13551389
-0.90273833 0.57768416 -0.13403805
-0.89752042 0.57765168 -0.1328796
-0.89251465 0.57756603 -0.13079587
-0.88749969 0.57748216 -0.1287463
-0.88208652 0.57749802 -0.12843259
-0.87657988 0.5775376 -0.12853268
-0.87174594 0.5774076 -0.1256811
-0.86630619 0.57743025 -0.12548824
-0.86145842 0.57730299 -0.12268673
-0.85622406 0.57727331 -0.12158566
-0.85096037 0.57725108 -0.12061398
-0.84574431 0.57721651 -0.11942867
-0.84065461 0.57714969 -0.11768307
-0.83537173 0.57713175 -0.11679073
-0.83020753 0.57708353 -0.11537106
-0.82545805 0.57692862 -0.11209469
-0.81991947 0.57697594 -0.11234127
-0.81494051 0.57687944 -0.11008297
-0.8097046 0.57684869 -0.10897213
-0.80484527 0.57672054 -0.10616451
-0.79973787 0.5766561 -0.10446896
-0.7942493 0.57669038 -0.10449337
-0.78929871 0.57658476 -0.10208248
-0.78399354 0.57657123 -0.1012756
-0.77906096 0.57646036 -0.098774381
-0.77378082 0.57643992 -0.097849078
-0.7692377 0.57622617 -0.093558311
-0.76361662 0.57629472 -0.094185747
-0.75806153 0.57634622 -0.094517782
-0.75295317 0.57628006 -0.092800252
-0.74784273 0.57621419 -0.091088831
-0.7425189 0.57620454 -0.090357631
-0.73717713 0.57619959 -0.08971066
-0.7323181 0.57606632 -0.086827353
-0.72676945 0.57611609 -0.087136187
-0.72165006 0.57605159 -0.08545284
-0.71695071 0.57587451 -0.081809036
-0.71199614 0.57576501 -0.079344437
-0.70657319 0.57578081 -0.079064898
-0.70128876 0.57575941 -0.078138389
-0.69618654 0.57568884 -0.076354943
-0.69071746 0.57571709 -0.07629513
-0.68551606 0.57567298 -0.074974328
-0.68012881 0.57567912 -0.074531212
-0.67524934 0.57554716 -0.071682088
-0.66984743 0.57555693 -0.071304888
-0.66476256 0.57548022 -0.069420129
-0.65977997 0.57537532 -0.067044638
-0.65416318 0.57544374 -0.067692831
-0.64909637 0.57536125 -0.065711632
-0.64431792 0.57519919 -0.062342491
-0.63902801 0.57517755 -0.06142208
-0.63342863 0.57524115 -0.06199215
-0.628519 0.57511413 -0.059237018
-0.62320405 0.57509899 -0.058433801
-0.61800784 0.57505083 -0.057056848
-0.61325347 0.57487923 -0.053526569
-0.60746372 0.57499611 -0.05503048
-0.60214615 0.57498133 -0.054238241
-0.59702283 0.57491195 -0.052495081
-0.59219193 0.5747602 -0.049313929
-0.58691466 0.57473338 -0.048315391
-0.5814966 0.57474619 -0.048009001
-0.57612425 0.57474619 -0.047479209
-0.57085967 0.5747155 -0.046417199
-0.56579179 0.57462889 -0.04437862
-0.5605824 0.57458222 -0.043037068
-0.55526948 0.57456481 -0.042209428
-0.54998904 0.57453805 -0.041218221
-0.54538423 0.57431763 -0.036848109
-0.54013258 0.57428193 -0.035703089
-0.53442764 0.57437646 -0.036833461
-0.52889466 0.57442188 -0.037105668
-0.52465808 0.57409286 -0.03084347
-0.5194304 0.57404935 -0.02956661
-0.51427734 0.57398403 -0.027908899
-0.50845033 0.57411438 -0.029670369
-0.50303012 0.57412672 -0.029372519
-0.49777132 0.57409197 -0.02825192
-0.49265137 0.57401645 -0.02642086
-0.48745438 0.57396317 -0.02497921
-0.48251525 0.57383376 -0.02220943
-0.47667864 0.57396829 -0.02405148
-0.47155166 0.57389385 -0.02224239
-0.46597093 0.57395333 -0.02277584
-0.46113831 0.57379115 -0.01943722
-0.45606872 0.57369864 -0.017316859
-0.45144013 0.57347441 -0.01289547
-1.1021332 0.58515 -0.19475947
-1.09681 0.58514833 -0.19409786
-1.0923145 0.5849551 -0.19008541
-1.0877163 0.58478498 -0.18647701
-1.0821805 0.58483207 -0.18667109
-1.0776559 0.58464396 -0.18275021
-1.0719336 0.58473444 -0.18370602
-1.0673285 0.58456421 -0.18010005
-1.0621841 0.58451968 -0.17869382
-1.0570211 0.58447933 -0.17736202
-1.0517255 0.58446985 -0.17657223
-1.0461661 0.58452243 -0.17687008
-1.0413953 0.58438933 -0.17391843
-1.0360565 0.58438981 -0.17330685
-1.0310266 0.58431733 -0.17141721
-1.025723 0.58430934 -0.17065914
-1.020802 0.58421052 -0.16831051
-1.0157496 0.58414268 -0.16650508
-1.0110348 0.58399409 -0.16328609
-1.006475 0.58380812 -0.15941402
-1.0008181 0.58388346 -0.16011959
-0.99570036 0.58383006 -0.15857174
-0.99062896 0.58376527 -0.15682612
-0.98511142 0.58380753 -0.15695553
-0.97945708 0.58388281 -0.15766476
-0.9740079 0.58390892 -0.15751339
-0.96960849 0.58368146 -0.1529211
-0.96415955 0.58370721 -0.15276486
-0.95880067 0.58371115 -0.15222897
-0.95355469 0.58368778 -0.15121455
-0.94880587 0.58354324 -0.14807735
-0.94365418 0.58349639 -0.14665401
-0.93859774 0.58342606 -0.14482053
-0.93398833 0.58324611 -0.14106442
-0.92837161 0.58331245 -0.14162838
-0.92448151 0.58295488 -0.13476069
-0.91811222 0.58320612 -0.13856807
-0.91329223 0.58307624 -0.13569453
-0.90830445 0.58298737 -0.13354123
-0.90341431 0.582874 -0.13095821
-0.89816773 0.58284849 -0.12991817
-0.89334077 0.58271873 -0.12704952
-0.88756472 0.58282465 -0.12831539
-0.88266081 0.58271343 -0.12577389
-0.87716341 0.58275008 -0.1258276
-0.87208253 0.58268267 -0.12405636
-0.86689699 0.58264112 -0.12274166
-0.86177337 0.5825839 -0.12115108
-0.85662568 0.58253253 -0.11966427
-0.85140932 0.58249825 -0.11847897
-0.84638917 0.58241427 -0.11642208
-0.84133303 0.58233911 -0.11452145
-0.83598602 0.58233732 -0.11390987
-0.83097076 0.58225137 -0.11182003
-0.8261072 0.58212632 -0.10904659
-0.82144195 0.58195013 -0.10537716
-0.81609678 0.58194709 -0.10474728
-0.81079805 0.58193225 -0.10390865
-0.80609405 0.58176464 -0.10039181
-0.80094761 0.58171016 -0.098861046
-0.79520506 0.58180892 -0.10002316
-0.79012972 0.58173591 -0.09816891
-0.78458953 0.58178282 -0.098421589
-0.77955872 0.58169794 -0.096361049
-0.77439213 0.58164805 -0.094915733
-0.76943481 0.58154327 -0.092509732
-0.76469696 0.58138108 -0.089094199
-0.75917023 0.58142412 -0.089284629
-0.75438505 0.58127338 -0.086071737
-0.74839234 0.5814386 -0.088410608
-0.74308139 0.58142531 -0.087614708
-0.73811036 0.58132255 -0.085247763
-0.73314726 0.58121729 -0.082838103
-0.72795534 0.58117187 -0.081481896
-0.72389132 0.58082777 -0.07487911
-0.71886259 0.58073825 -0.07274776
-0.71339995 0.58076364 -0.072637901
-0.707753 0.58083832 -0.073393516
-0.70257872 0.58078694 -0.07193844
-0.69675171 0.58091027 -0.07354977
-0.69137174 0.58091408 -0.073063932
-0.68570131 0.58099592 -0.073951378
-0.68055421 0.58093721 -0.072369352
-0.67542845 0.58087248 -0.070683561
-0.67023408 0.5808261 -0.069320031
-0.66516936 0.58074433 -0.067336388
-0.66008359 0.58066785 -0.065446742
-0.65490359 0.58061683 -0.064005092
-0.64992708 0.58051002 -0.061584428
-0.64448148 0.58053094 -0.06140865
-0.63922393 0.58050048 -0.060330771
-0.63459015 0.58029878 -0.056245081
-0.62952608 0.5802145 -0.05422359
-0.62463957 0.58008093 -0.051336631
-0.62002563 0.57987159 -0.0471191
-0.61441165 0.57993788 -0.047747761
-0.60869676 0.58003241 -0.048874471
-0.60330904 0.58003658 -0.048411831
-0.59814227 0.57997918 -0.046868861
-0.59280151 0.57996994 -0.046175499
-0.58709043 0.58006424 -0.047302209
-0.58166337 0.58007944 -0.04703854
-0.57689881 0.57990867 -0.04350704
-0.57169402 0.57986104 -0.04214108
-0.56668913 0.57975686 -0.039781459
-0.56165236 0.57966125 -0.0375732
-0.55676222 0.57952362 -0.034628868
-0.5511806 0.57958162 -0.03512447
-0.54694718 0.57925659 -0.028884239
-0.54098481 0.57942271 -0.03128292
-0.53643262 0.57918686 -0.026613729
-0.53054643 0.57933176 -0.028642539
-0.52514511 0.57933813 -0.02823727
-0.52041125 0.57915282 -0.024457969
-0.515374 0.57905394 -0.02220333
-0.50897676 0.57934731 -0.026848109
-0.50388658 0.57926375 -0.024863239
-0.49815872 0.57936472 -0.02612667
-0.49301025 0.57929772 -0.024435999
-0.48804826 0.57917625 -0.02178707
-0.48262346 0.57918924 -0.021505089
-0.47811386 0.57893461 -0.016514849
-0.47272736 0.5789358 -0.01602779
-0.46691987 0.57906073 -0.01771969
-0.46167144 0.57902163 -0.01652462
-0.45731783 0.57871819 -0.010679889
-0.452034 0.57868862 -0.0096544996
-0.44663253 0.57869363 -0.0092406794
-1.1029135 0.59031188 -0.19146481
-1.0971018 0.59042197 -0.1927734
-1.0924381 0.59026879 -0.18943843
-1.0883969 0.58997184 -0.18357052
-1.0828421 0.59002268 -0.18383662
-1.0776557 0.58998859 -0.18260616
-1.0727183 0.58989668 -0.18035886
-1.0675244 0.58986396 -0.17915401
-1.062286 0.58984149 -0.17813107
-1.0570548 0.58981729 -0.17707881
-1.0518454 0.58978778 -0.17593379
-1.0467895 0.58972239 -0.17415768
-1.0412136 0.58977824 -0.17452145
-1.0360123 0.58974671 -0.17334346
-1.0308386 0.58970851 -0.17204952
-1.0260309 0.58958411 -0.1692358
-1.0210599 0.58949775 -0.16709347
-1.0160941 0.58940989 -0.1649255
-1.0112833 0.5892849 -0.16210444
-1.0071976 0.58898795 -0.15624753
-1.0019745 0.58895963 -0.15513302
-0.99693054 0.58888865 -0.15326656
-0.99169189 0.58886367 -0.1522131
-0.98545474 0.5890767 -0.15536372
-0.98105502 0.58885157 -0.15077877
-0.97511017 0.58899546 -0.15270992
-0.96979189 0.58898956 -0.15199825
-0.96478182 0.58890963 -0.1499792
-0.9596411 0.58886081 -0.14851192
-0.95440829 0.58883399 -0.14743404
-0.9497577 0.58866656 -0.14387202
-0.94461948 0.58861643 -0.14238277
-0.93951994 0.58855659 -0.14072506
-0.93342471 0.5887385 -0.14333735
-0.92969024 0.58834654 -0.13581418
-0.92489928 0.58821076 -0.13281612
-0.92000735 0.58809912 -0.13024531
-0.91498262 0.58801949 -0.12824093
-0.91051269 0.5878036 -0.12383053
-0.90529329 0.58777088 -0.12265743
-0.90072238 0.58757854 -0.11866451
-0.89541781 0.58756626 -0.11785397
-0.89065671 0.58741975 -0.11467281
-0.88348478 0.58786917 -0.12202511
-0.87779939 0.58795184 -0.12289547
-0.87236875 0.58797145 -0.12265377
-0.86680084 0.58802527 -0.12301754
-0.86179537 0.58793914 -0.12090817
-0.8569687 0.58780795 -0.11800289
-0.85217744 0.58766741 -0.11493526
-0.8474564 0.58750868 -0.11154537
-0.84187961 0.58756423 -0.11194576
-0.83703583 0.58743572 -0.10909054
-0.83216065 0.58731449 -0.10636593
-0.80211276 0.58678025 -0.093456991
-0.79659027 0.5868215 -0.093612023
-0.79096437 0.58688951 -0.09424191
-0.78513914 0.58700877 -0.095779993
-0.77963471 0.58704597 -0.095869102
-0.71449465 0.58584964 -0.067377888
-0.70882356 0.58592951 -0.068236053
-0.70271146 0.58612657 -0.071169399
-0.69701082 0.5862152 -0.072185017
-0.69151062 0.58625084 -0.072263151
-0.68623382 0.58622706 -0.071290247
-0.6800949 0.58643347 -0.074394487
-0.67527801 0.58628678 -0.07124874
-0.67011291 0.58623302 -0.069748498
-0.66506255 0.58614802 -0.067696497
-0.66062105 0.58589882 -0.062736779
-0.65538639 0.58586258 -0.06154903
-0.63090086 0.58521867 -0.047434039
-0.61032122 0.5849663 -0.040811729
-0.60393143 0.58524555 -0.04522457
-0.59828568 0.58532053 -0.046019249
-0.59263581 0.58539695 -0.046840779
-0.58786792 0.58522904 -0.043333698
-0.58202714 0.58535856 -0.045098841
-0.57761335 0.58509123 -0.03983273
-0.57211882 0.58512449 -0.039892539
-0.56679046 0.58511132 -0.03913204
-0.56158948 0.58506233 -0.037737999
-0.55728072 0.58476257 -0.031899378
-0.55275315 0.58452308 -0.02713009
-0.54697543 0.5846352 -0.02859371
-0.54189485 0.5845508 -0.026574669
-0.53706193 0.58439577 -0.02330563
-0.53250396 0.58416194 -0.018640099
-0.52807987 0.58388907 -0.013283649
-0.52281404 0.58385491 -0.012160609
-0.51724046 0.5839088 -0.0125964
-0.5113132 0.58406401 -0.01483395
-0.5043692 0.58451188 -0.022259479
-0.50046921 0.58408588 -0.014191859
-0.49413514 0.58435988 -0.018537559
-0.48898393 0.58429325 -0.01684444
-0.48363847 0.58428252 -0.01614376
-0.47844833 0.58422667 -0.014644739
-0.4731276 0.58420855 -0.01381466
-0.46791917 0.58415759 -0.012403529
-0.46282196 0.58407396 -0.01041378
-0.45794344 0.58392584 -0.0072814594
-0.45265946 0.5838961 -0.0062499596
-1.1036737 0.59548128 -0.18825313
-1.0983402 0.5954814 -0.18762203
-1.0938724 0.59528422 -0.18348508
-1.0886203 0.59526545 -0.1825195
-1.0836139 0.59519029 -0.18055417
-1.0786698 0.5951007 -0.17833248
-1.0735428 0.59505272 -0.17685054
-1.0678653 0.59513098 -0.17761593
-1.06258 0.59511936 -0.17678219
-1.0571936 0.59513098 -0.17636348
-1.0519654 0.59510612 -0.17529659
-1.0467142 0.5950864 -0.17432247
-1.0415201 0.59505343 -0.17311399
-1.0361426 0.59506285 -0.1726611
-1.0311459 0.5949837 -0.17063351
-1.0259439 0.59495211 -0.16945186
-1.0212177 0.59480929 -0.1662939
-1.0168396 0.59458435 -0.16167599
-1.0119696 0.59447414 -0.15909787
